# 3D point list with one line of data per point:
#   POINT3D_ID, X, Y, Z, R, G, B, ERROR, TRACK[] as (IMAGE_ID, POINT2D_IDX)
# Number of points: 328, mean track length: 3.6733650779782447
31654 -2.9795304808719036 -28.879459655907855 -17.885211816647786 11 6 14 1.1081870510753151 43 3481 44 3611 172 7018 205 5946 41 4136 39 3674 170 3943 167 3920 171 3540
31655 -1.0420527597267781 -31.476004360844989 -17.115245055282383 101 59 5 0.88829832981230006 45 8888 41 3788 44 3683 168 3557 172 6666 167 3917 205 6540
31656 -1.8206980645005808 -33.139245913143142 -17.719710855298764 115 71 19 0.48684871304973765 45 7719 41 3243 44 3067 173 5527 172 5991 174 3569
31657 1.0024499569781784 -22.254981527707589 -13.750221046735755 9 9 21 0.27490127138669551 43 3517 44 3018 38 1832 41 3220 37 2317 40 5978
31658 0.97121407052245579 -21.951437374520889 -13.900190973765849 52 55 60 0.34546301617418168 41 2463 40 5972 44 2269 37 2308 38 1385 35 2037
31659 -5.6129848370024629 -22.533839069554887 -15.270899604015151 46 50 27 1.2523375670648653 43 4068 44 4865 39 3819 37 2918
31660 -8.4742028094199444 -32.441947160813129 -22.583697117314401 19 19 19 0.679047964041676 168 3642 39 3790 169 4766 232 3230 231 4674
31662 -6.7111539684267463 -33.205578214266467 -22.237825196045176 118 121 102 0.94560796985963336 43 3799 44 4378 168 3437 39 3658 167 3802 169 4637 232 3117 170 4284 172 7125 231 4127
31663 -7.798788248742734 -30.237993579359589 -21.85517076704074 172 161 153 0.60826197520377367 43 3782 44 4354 168 3531 39 3651 169 4653 172 6952 232 3106 205 7306 231 4371
31664 -10.418782101373733 -29.86976363205514 -22.666406757886108 69 75 47 1.5979281225085509 168 3442 39 3636 172 7278 173 6360
31665 -4.5442038256201869 -29.201090005128645 -19.307732443071519 252 250 245 1.3399673556492253 41 4120 168 3479 167 3831 232 3033 39 3538 38 2139
31666 -4.8555398908041845 -29.94771717560311 -19.616760225049081 253 253 247 1.1782866315486016 41 4119 43 3902 168 3550 39 3537 167 3912 231 4142 224 8416 232 3032
31667 -4.8514288461433832 -29.956749542094748 -19.646470534192865 253 253 248 1.0467871342049151 41 4118 44 3572 168 3551 39 3536 43 3674 167 3913 232 3031 231 4141 224 8415
31668 -6.4205580830724687 -33.358979758421746 -22.203893495497923 90 92 76 0.86527726202587396 43 3445 44 4028 168 3082 39 3529 167 3498 232 2828 169 4144 231 3745
31669 -6.9190932144072237 -33.196078676232993 -22.164986198124023 94 96 78 1.5066682622286174 43 3660 44 2917 168 3074 39 3514 167 3682 232 2825 169 4138 231 4125 170 3427 171 4083
31670 -7.2392695797281084 -31.83891050649089 -21.671470362064277 88 74 61 0.13999687517356335 168 3320 39 3508 169 3800 232 2805
31671 -9.8331084440262142 -31.729756671551407 -22.189285974900592 75 62 52 0.52262832913465151 44 3494 168 3286 39 3493 43 3067 169 4131 232 2778 170 3412
31672 -11.235842298255784 -27.442921668070181 -22.542254829961845 16 9 15 0.75021916254461696 168 3537 39 3426 167 3892 231 4006 232 2700 238 1660
31673 -11.234366289479993 -27.441450298879037 -22.532449570689963 16 10 15 0.75318686882657782 43 3596 168 3536 39 3425 167 3891 231 4005 232 2699 238 1659
31676 -3.7160479113845351 -30.375215942725937 -18.465256325923789 15 4 11 0.7727366762815594 43 3208 44 2986 39 3356 172 6106 231 3327 167 3337 225 8952 171 3438 174 3607 170 3128 173 5547 169 3927
31677 -2.7677671082281141 -23.185191786202257 -13.946408405467071 83 75 55 0.42558115800172813 43 2760 44 2182 38 2422 41 3722 37 2716 39 3342
31678 -6.1731396146094646 -32.47219615281778 -21.120740980424223 68 60 52 0.63081166060811278 168 3110 39 3317 169 4165 232 2579
31681 -2.0164842363458244 -18.97773178519093 -12.837921452743444 77 69 51 0.61814612422774518 43 2698 44 3549 39 3308 163 3301 41 3124 33 2004 35 2008 193 7335 194 3981 195 3530 192 2839
31682 -8.9419771716023835 -32.114928089833867 -22.420850190835132 20 16 21 0.43495786696155914 43 3080 168 3291 39 3281 232 2509 231 3669
31683 -7.9935256761508384 -30.134479154187595 -21.908311873556485 16 14 18 0.81649399097741793 43 3078 39 3267 44 3512 169 4206 172 6574 174 3822 175 4145 232 2508 168 3141 170 3845 171 3773
31684 -3.0892251861498865 -28.365349262204198 -18.016096486139649 5 2 12 0.50805757103992777 41 3165 39 3086 44 2210 39 2687
31686 -5.1160512203725119 -26.273102691130259 -19.469674645790537 21 18 25 0.83399701836873708 44 2880 168 3244 167 3628 232 2560 41 3086 37 1899 39 3000 43 3140 172 6280 173 6054
31687 -8.6732662999164649 -32.194303873328415 -22.417812480537982 153 133 117 0.48119288885975486 43 2642 168 2720 39 2981 167 3175 169 3224 231 2345 232 2517
31688 -7.7740980833776536 -30.099616356961981 -21.905561515022764 18 18 21 0.63333425053920744 43 3081 44 2862 168 3145 39 2974 167 3258 169 3855 170 3490 172 5115 232 2510 171 3777 175 3691 231 2339
31689 -2.3066991655838249 -27.647922766297796 -17.24192825538853 30 19 17 0.23635146497352699 43 2217 44 1368 168 2998 41 256 39 2732 37 1991
31692 -2.8690576209735341 -28.695766553086536 -17.944973053752381 14 6 14 0.75725524756758411 43 2173 168 2548 167 2551 39 2699 41 2419 44 1337 37 2291 169 2933 172 5426 205 3710 170 1798 173 4393
31694 -4.9756662889402241 -26.126214972525489 -19.455768975120307 21 24 30 0.69503192331434216 43 2668 168 2987 232 1661 38 1736 39 2575 44 2103 37 2230 169 3589 172 5533 173 4479 167 3425 233 2042
31696 -5.233196083059477 -26.517094943060261 -19.705876690887791 125 124 131 0.29003517563023212 43 2664 168 2957 39 2573 167 3066 169 4012 170 3675 173 5681 174 3664 175 4263 171 3962 233 2416 172 6260 232 2228 205 5073
31697 -5.9748559505400864 -27.111253079074622 -19.877796407329757 20 9 11 0.63739235521546889 41 2291 43 1935 44 2093 168 2528 39 2566 167 3390 171 2945 172 5414 173 5099 174 3214 231 1056 175 3351
31698 -7.9356895662657676 -17.495145635797357 -15.752192007260286 110 108 83 0.10989502839764684 43 2465 39 2372 37 1663 35 1839
31699 -2.050053202257148 -27.258587179718422 -17.000259327819428 11 3 13 0.27703823764623159 43 2225 39 2232 171 3091 167 3149 173 4584
31700 -4.8471293109555464 -33.714001169429551 -19.761688017958686 22 11 16 0.40969559388510568 44 353 39 2231 172 3717 174 2424 175 3063
31701 -1.5047304223863052 -17.497874023081994 -12.306084687295193 79 71 51 0.64623875053113333 41 1332 39 2003 37 1941 35 527
31705 -5.0990015475909978 -26.572960000652653 -19.661245919846841 103 100 105 0.34028190297067873 44 2106 168 2959 39 1944 167 3072 41 2316 43 2669 37 1377 172 6259 232 2232 233 2424 170 3255 171 3558 173 5153 175 3956 174 3899 205 5076
31708 -5.1308038257452306 -26.483609100785468 -19.602782884835452 34 37 50 0.35695608979812726 43 1943 44 1139 39 1943 41 1278 37 673 171 3562 174 3248 233 2043 232 1663 169 3563 170 3259 172 5498 173 5161 175 3962 167 3077
31709 -5.0451860231899301 -22.81214529356232 -14.977436009604407 78 86 50 1.6803883660339589 41 1281 43 3142 44 2878 38 1735 39 1942
31710 -7.6207157808309551 -30.056637286477098 -21.784448970432795 15 15 21 0.60823677635060291 168 2788 39 1894 169 3338 170 2994 171 3326
31712 -8.9058107511077083 -27.106904227727327 -21.448740431754317 22 18 20 1.1438876449016695 43 2546 168 2869 39 1663 172 5299 167 2404 169 3447 205 3251 174 3133 171 3440 175 3230
31713 -8.7314430483980239 -26.672769217144268 -21.300917528368835 16 11 15 1.1338089273361791 168 2479 39 1656 169 3481 172 5332 173 4185
31717 -3.1445137035856128 -28.442801046392059 -18.079158090017046 52 41 47 0.45835194417351194 44 301 168 2057 39 1081 43 2135 37 1458 41 205 169 2938 170 722 172 1122 232 1085 171 2126 174 2004 173 1458 138 148 122 1634
31718 -4.2811769035148934 -30.015520539025012 -18.644267323444748 19 6 14 0.80370563119313132 43 1003 168 1961 39 1060 167 1692 232 1050 169 1961 170 1586 171 769 172 2546
31719 -1.1980674149685095 -17.744662273861525 -12.18210321170916 108 102 90 0.21247017716448005 41 155 39 978 35 549 37 1424 33 597
31720 -5.1507261208250279 -26.527209629055275 -19.648493513989226 125 120 124 0.20720153496319413 168 2088 39 891 167 1906 169 2959 170 1835 172 4485 173 4425 174 2758 175 3396 205 1799 233 1532
31721 -9.0250498030344133 -27.364433084019449 -21.668205397299971 29 26 28 0.58747244941186449 43 557 39 636 171 1847 174 2569 175 3211
31722 0.83469849125403905 -16.878263371265589 -10.647985053325058 12 8 17 0.42054946294390583 41 4594 38 2792 39 3804 37 2900 35 2678
31723 -0.052808171890363367 -15.663822817157435 -10.846808737032688 42 51 29 0.80474112307650725 39 3545 41 3720 38 2411 37 2711
31724 -0.27744166124749642 -16.987247782576723 -11.296819840089224 68 76 52 1.8029959946090315 41 3163 38 2150 37 1969 39 2648 35 1220
31725 -3.0856909362432923 -16.459082319377771 -12.781333516922304 65 58 31 0.69672620164221599 39 3265 41 3679 44 3502 38 2089 35 2267
31726 -5.6863143641231915 -19.311816737164825 -14.679531143066006 160 156 167 0.22060067362485353 39 3251 43 3395 37 2454 38 2071 33 1963
31727 0.68650055652266617 -25.288487488205771 -12.350482921075066 34 34 28 0.72770913997832609 45 6003 38 1876 35 2363
31728 1.010095143623293 -22.274350277125755 -13.585352091050254 31 32 40 0.42944948067917865 40 7572 41 3222 43 3519 44 3022 38 1834 35 2326
31729 0.91237133105653156 -22.194898343564819 -13.805352746431188 39 39 48 0.49684319549539585 40 7569 41 3755 37 2314 35 1703 38 1828
31730 1.212015623573427 -22.630187852159739 -13.295507365450161 39 42 52 0.2498708619783776 40 33 41 1563 38 922 35 1316
31732 1.0560186420129416 -22.013236962779512 -13.604172946644239 53 54 62 0.31761641128418006 40 3523 44 1413 38 902 41 1545 43 2261 37 1533 35 1284
31733 -6.0414459405670566 -20.134864560760764 -14.891501160502891 121 119 106 0.19957580652158877 39 678 43 1778 37 1285 38 135 35 400
31734 0.5402718754794924 -16.660966071898532 -10.830711803494083 79 72 60 0.47435895207839546 39 3891 41 4792 37 2947 38 2869 35 2720
31735 -1.3167860335674522 -17.476559606569893 -12.10620319456242 142 136 119 0.85677052629947714 39 3854 41 4748 44 4868 35 2696 37 2922 38 2823 33 2313
31736 -4.6277299115205315 -22.939579272063401 -14.618009535875101 139 132 107 1.0508568350936829 38 2821 39 3821 41 4743 37 2920 43 4033 38 2782 41 4661 44 4718 37 2886 39 3793 43 3972
31738 -6.8207116715467349 -15.670063917285672 -14.882891331923311 71 67 44 0.85053122707979822 39 3700 43 3747 37 2757 35 2513
31739 -0.21109767438953339 -18.346308541056722 -11.737733128562596 77 73 58 0.28530662925372413 39 3557 41 4138 38 2425 35 2315 37 2719
31740 -0.1936384039153774 -16.933354213127551 -11.213725205666915 104 103 82 1.0438064067726573 39 3553 41 3729 35 2458 37 2717 38 2418 33 2238
31743 -0.65696055146407994 -17.320333174870399 -11.845786030352398 102 114 88 0.86150092089260566 38 2410 39 3336 41 3718 44 2928 35 2455 37 2708 162 7154 33 2142 160 1980 194 4085 195 3705 192 3905 225 11420 192 4179 232 2601
31744 -1.2459245982032841 -16.605766540982174 -12.116529531490665 62 70 41 1.1946307469292463 38 2386 39 3518 41 3701 44 2897 35 2626 37 2692 38 2586 162 7968 33 2270
31745 -4.4410363726063409 -23.207239770457218 -14.552561355668637 139 133 110 0.85056230070340622 38 2387 39 3300 41 4103 43 3663 37 2687 44 4017
31746 -4.4610743738403293 -23.041819637920248 -14.532602302646056 81 72 46 0.75066062420598101 39 3656 41 4392 43 3659 37 2685 44 4367
31748 -2.6774827240497601 -16.797576446242847 -12.815691029190024 121 108 87 0.80079233301314878 39 3502 44 4000 41 4097 38 2373 41 4384 37 2679 35 2560 33 2219
31749 -7.3861110843015414 -17.320799824468878 -15.435413312005984 65 66 46 0.5723658751292886 39 3414 43 3586 37 2611 35 2516
31750 -7.3618643152995924 -15.924012102426031 -15.239280564254356 52 51 35 0.761399735245888 39 3405 43 3579 37 2603 33 2057
31751 -0.5485173531806915 -17.719949443342941 -11.638742215543079 64 70 41 0.73686235481080831 38 2153 39 3067 41 3726 44 2938 37 2538 35 2457
31752 -0.60566115198879655 -16.786223080614882 -11.40455545205683 72 85 58 1.4273836630952845 39 3544 41 3719 35 2454 37 2529 38 2144 33 2014
31753 -1.9723575626774938 -18.853842851466997 -12.775336034974256 85 75 56 0.87044690733366892 43 3446 44 3550 35 2296 39 3309 41 3125 162 7499 33 1829 37 2518 165 4945
31754 -4.7049466575630792 -23.151120671735008 -14.698194076688319 75 82 45 1.1904790748849501 38 2382 39 3016 41 4100 43 3658 41 3106 37 2503 44 4009
31755 -6.3423312650671626 -18.04656066408716 -14.953061026824093 121 111 96 0.27578317045392026 38 2048 39 3218 37 2428 43 3367 33 2084
31756 -6.8149284141601179 -18.194772557475783 -15.220554398788513 87 82 63 0.32532753333700443 38 2030 39 3209 43 3356 33 1921 37 2414
31757 -0.21519687791641953 -17.389113994687055 -11.588149253186376 0 0 0 6.1506880752523934 35 1221 33 1564
31758 -1.5937985984962129 -17.38536968246008 -12.309747209029544 117 107 84 0.55363977932452291 39 3303 44 2901 38 1748 33 1824 37 2254
31759 -2.7222922135883176 -16.636997101198848 -12.79801033922311 56 62 31 0.66108678663848852 38 1720 39 2984 41 3090 44 3999 35 2289 37 2233 33 1993
31760 -3.6954823649997066 -18.690424369627259 -13.521538489682431 90 81 56 1.030803370457458 39 2557 41 3084 35 2559 37 2228 38 1722 33 2113
31761 -4.4719756835265807 -20.40795217124781 -14.189490394495214 88 78 51 0.46586587769012816 41 3080 44 3527 35 1984 37 2227 38 1725 39 2987 33 1520 43 3134
31762 -2.8152581501619136 -16.579470926540839 -12.806323866899618 109 99 80 0.3975874102957303 38 2111 39 3289 41 3684 44 3995 37 2226 35 2286 33 1991
31763 -5.8865479333150645 -16.787142457212529 -14.539121009337023 41 39 30 0.27405219716674228 39 2905 43 3021 37 2151 38 2040 33 1937
31764 -6.1678766937097489 -17.119798183818666 -14.754464140365709 43 40 32 0.40409316366559744 38 1640 39 2899 37 2143 33 1720
31765 -2.1641263234010091 -16.984272578299244 -12.462700016293924 120 109 85 0.71087478781512314 39 2580 44 1134 35 1650 37 1925 38 1321 41 1294 162 6410 33 1822 160 1813 192 2919 194 3645 195 3568 211 3235 213 3361
31766 -2.8626694417004392 -28.767705026323643 -17.943910083720652 169 153 158 0.59960363458744248 38 302 39 1124 41 239 44 333 37 1494 168 1385 172 2881 167 1844
31767 -4.397033610394292 -20.210215508045653 -14.11992708247783 97 87 62 0.59157717213570182 39 1923 41 2303 37 1357 38 720 35 1640
31768 -5.0135859802879237 -17.917857149953846 -14.032652933784375 85 77 53 0.35549227226360552 38 655 37 1294 35 1601 39 2512 33 1039 43 1770
31769 -4.7412053791807676 -16.910409606612319 -13.862698936962149 42 37 25 0.24019753074712996 38 641 43 1745 39 1682 37 1273 33 1015
31770 -4.7819642017578436 -16.8894456474275 -13.883858786598765 73 68 55 0.27402889655853219 39 650 43 591 35 364 37 1264 38 100 33 1011
31771 -5.865010413620686 -17.424016968553843 -14.612890045439267 79 75 66 0.19767247045941067 38 1230 43 1683 37 1197 39 2464 33 1418
31772 -6.8345532414714834 -18.284439249589219 -15.26152857751976 117 110 91 0.1662793236099534 38 570 39 1555 43 410 35 953 37 1139
31773 -6.814721938662327 -16.404261475588964 -14.996963565180126 88 87 55 0.12767165530014729 39 1499 43 1565 37 1089 35 866
31774 -7.5107584386390709 -15.698313991998113 -15.274475434582698 67 65 47 0.1472250808041643 39 1428 43 1491 37 1028 33 1316
31775 -7.6896405989808079 -15.838049791466641 -15.394014081908526 79 77 58 0.31737494627336099 39 1420 43 1486 37 1022 33 808
31776 -5.1269526589925523 -16.939298350902522 -14.154856056639993 61 63 57 0.2269239727607511 38 623 43 561 39 615 35 338 37 493
31777 -6.6205753032996171 -18.116170447538998 -15.114963778966153 138 126 105 0.24305722508689453 43 1630 37 374 38 35 39 512 33 291
31778 -7.91466725883968 -15.23092465793437 -15.377406916157998 73 60 30 0.1372189095636478 39 202 43 178 37 176 33 147
31779 -2.6268515143066327 -16.958000256266086 -12.79789837507448 118 107 85 1.8468497078729378 39 3878 41 4839 44 4905 35 2739 37 2940 33 2335
31782 -2.0293290316964177 -17.081659474632865 -12.302071997684262 135 128 112 1.5056828996948883 38 2781 41 4663 44 4717 163 3605 35 2695 37 2887 33 2312 194 4693 195 3896 162 8225 192 4518 160 2216
31783 -5.8005984021022732 -19.904721962888743 -14.812939081984275 64 58 27 0.74830462424354338 37 2780 39 3723 35 2619 38 2569 33 2205
31785 -1.7901609567655403 -18.360426662552698 -12.608453091163028 77 66 44 0.68126644060017838 163 3548 35 2564 160 2149 165 5182 195 3823 194 4570 193 9791
31786 -7.5913516882085004 -19.091390075414957 -15.802146598491694 38 34 22 0.47664500426238793 39 3429 43 3603 35 2524 33 2184
31787 2.7572273224737764 -20.866582010658718 -10.587818411814116 87 84 73 1.3725845001490591 38 2207 163 3545 35 2496 160 2107 162 7561 194 4495 165 5096 166 3459
31789 -1.5010726670479078 -17.968788450722624 -12.397577906758238 110 102 87 0.74265189920951047 44 3552 163 3409 35 2301 38 2135 39 3311 41 3135 162 7820 33 2010 160 2106 192 3441 194 4321 195 3700
31790 -1.8907080038921302 -18.620623675629723 -12.704560364674569 80 70 50 0.47466347000452724 39 3307 44 3547 163 3417 37 2702 38 2397 41 4122 162 7945 33 2132 35 2293
31792 -3.8921866957612692 -17.024750651992289 -13.61444210243657 106 120 84 0.94022060437261912 39 2964 163 3291 35 2249 37 2465 38 2366 33 2107 194 4485 195 3695 192 3422
31793 -5.6843467839983024 -19.31154561996496 -14.68146263869013 158 154 165 0.26733469357946288 39 3252 43 3396 35 2240 37 2455 38 2072 33 1964
31795 -3.8010308435694311 -16.977403366031172 -13.558321372622824 144 165 135 0.61652733172941054 44 2840 163 3122 35 1964 38 1701 39 3262 33 1977 193 8520 194 4018 195 3551 192 2900
31796 -3.8181369392396194 -16.878966932930709 -13.551837066724516 102 117 80 0.5862022436419132 38 2084 163 3117 160 1783 195 3553 35 1963 33 1482
31797 -0.46326127031101438 -17.809588133928354 -11.53840361949932 95 87 72 0.31547375394052352 37 1978 38 1351 41 2412 39 3074 33 1567 35 1675
31798 -7.6531311229568226 -17.896403691836362 -15.654939586500415 124 126 100 0.18632597724771344 37 1078 43 1556 35 1468 39 1490 33 1346
31799 -7.78091087254196 -17.582150019858094 -15.678095107010828 113 115 89 0.16371889566814324 37 1668 39 2379 43 2471 33 1332 35 1445
31800 -7.8738226915935163 -17.710110236521317 -15.744799221807671 82 82 57 0.26563245354450143 37 1057 39 1464 35 1443 43 1529 33 838
31801 0.19865915843828716 -17.283967020291232 -11.493425079871708 108 99 87 0.92357700623310135 39 2157 35 1236 33 1180
31802 0.13358609157706972 -16.155548930940469 -10.966261623609613 68 67 49 0.96981185564758488 39 2078 35 1223 37 2539 33 2018
31803 -6.4627497137085141 -18.349128600288338 -15.068525610838202 52 53 51 0.41406757893294399 39 549 35 291 37 1170 43 1665 33 943
31804 -6.7948749023747217 -18.246907414694714 -15.241416599884491 92 85 66 0.15706803436255273 43 416 35 214 39 487 33 915
31805 -1.2594154435026919 -16.881456875464679 -12.10166827462653 82 94 66 0.44855375883214488 35 2628 37 2856 38 2719 162 8177 33 2272 160 2193 192 4454 194 4671 195 3898
31806 -0.3370899279359163 -17.575933973385894 -11.658467348053392 137 138 118 0.83028224608881374 38 2420 39 3552 41 3728 162 7588 33 2237 44 3577 194 4582 195 3872 225 11434 192 4177
31807 -0.33690168669164489 -17.576440771401984 -11.657842170438817 137 138 118 0.80208519433496128 37 2810 38 2419 39 3551 41 3727 162 7587 33 2236 44 3576 194 4583 195 3873 225 11433 192 4178
31808 -1.4595645399338026 -18.250828356690121 -12.402636142198503 112 103 89 0.97944402929530894 35 2302 39 3533 162 7816 33 2138 44 3558 160 2048 165 5087 194 4490 195 3698
31809 -1.1165423995807484 -16.81834584767277 -12.006409575547778 56 65 38 0.38379464967775323 35 2450 37 2515 38 2395 39 3524 41 4123 162 7850 33 2137 194 4512 195 3778 192 4180
31810 -1.1119717603436428 -16.820269371806756 -12.014733730601927 56 64 37 0.44448741295059985 35 2449 38 2394 39 3523 162 7849 33 2136 160 2065 192 4181 194 4511 195 3777
31811 -1.159532907515584 -16.649442635351381 -12.016160013781858 96 110 81 0.46235815663216101 35 2448 37 2512 38 2392 39 3520 41 3705 162 7857 33 2131 44 3544 160 2068 192 3910 194 4514 195 3779
31813 -1.8289964286786493 -17.182147795590907 -12.290780383146389 80 70 45 0.89642118753562106 38 2383 39 3655 162 8084 160 2110 192 4172 35 2444 37 2686 44 4365 33 2127 41 4393 194 4500 195 3769
31815 -1.9198747268435306 -16.891851714753731 -12.249360143730783 58 64 36 1.2424720732261998 35 2562 37 2505 39 3299 41 3697 162 7571 33 2126 38 2381 44 3539 160 2062 194 4507 195 3826 163 3482 192 4348
31816 -8.1598474605024993 -15.556879530156428 -15.524907177149247 98 78 35 0.53083700764262176 43 3564 37 2594 33 2040 39 3388
31817 -1.6146100828649907 -17.994880777281388 -12.453915714265591 80 68 48 0.51757594826932252 37 2519 39 3306 41 3711 162 7817 33 2008 35 2451 194 4319 195 3699 192 3437
31818 -1.3497602711661836 -16.735567648632681 -12.09533172729831 85 96 69 0.55728530460809089 35 1998 37 2253 38 1745 39 3302 41 3118 162 7593 33 2001 160 1982 192 3472 194 4345 195 3706
31819 -1.7444208716625877 -17.114236297881543 -12.179273699259378 138 131 114 0.77714853626593683 38 2385 39 3511 41 4108 35 2292 37 2690 44 4011 33 1998
31821 -2.0539498701264911 -16.945332749698945 -12.306665717768883 134 125 109 0.66277544072393879 35 2443 41 3696 162 7567 37 2502 44 4007 33 1997 163 3401 194 4333
31823 -5.4512826721601595 -16.721338316954597 -14.299031932061004 77 75 59 0.38988236010606869 37 2434 38 2053 39 3224 33 1946 35 1928 163 3434 195 3687 193 7364 194 4291 123 3042 131 3004 132 3550 125 3535
31824 -1.2193272256484486 -18.050145224129508 -12.269797453412748 111 104 91 0.41872775012152852 35 1664 39 2626 162 7098 33 1834 160 1804 192 2232 194 3612 195 3346
31825 -1.6817140404385444 -17.427537929996635 -12.346980560578531 53 45 29 0.67872502127059842 35 1997 37 2252 38 1746 33 1823 41 3116 39 2596 162 6397 33 1139 37 1937 160 1614
31826 -2.7913347070648142 -13.818367220901083 -12.476817800663268 13 13 8 0.72401532346372577 35 2243 38 2078 39 3259 33 1800 131 3178 132 3134 125 2992 163 3252
31827 -7.0813589066195357 -18.431659811094672 -15.414285235062112 91 85 63 0.98960640763016339 35 1905 37 1705 39 2885 43 2506 33 1697 39 1543 33 894 38 1188
31828 -1.5463755701885764 -18.036942775661341 -12.432406217884092 110 102 87 0.7638892134482298 35 1655 38 776 162 7086 33 1550 160 1800 163 2778 165 3897 195 2963
31829 -1.2242205885544113 -16.721786232343408 -12.055068530952473 63 73 45 0.75102892788903675 37 1417 39 2000 162 6482 33 1546 160 1639 194 3083 195 3578 192 3473
31830 -6.8014523879289266 -18.486639193433795 -15.286119439104468 64 60 44 0.60871651535411397 39 1568 43 1628 33 920 37 367 33 278
31831 -2.8004623636039434 -19.042912810574734 3.9451553488739974 51 32 21 0.96121139630163044 13 5174 10 8607 15 4702 17 4113 18 11647
31832 -9.9438856600310483 -11.935359768125046 4.1003551921423362 115 101 77 0.63346916579494961 13 4750 10 7403 15 4251 17 4033
31833 -0.67953259648183784 -15.021781427066163 4.773452377279102 118 82 30 0.32273990875411934 13 4666 10 6832 15 4130 17 3681
31834 -12.066209712755446 -6.4186017392023338 4.0790895244131065 190 185 198 0.38818087810203328 13 3768 10 6429 15 3167 17 2718
31835 -1.4151261509648128 -4.45033892616103 10.37895915691411 124 124 123 0.80170324272049831 12 41 13 4207 10 3469 17 3163 20 4580 14 41
31836 -6.0296768185535763 -24.965457739449917 2.8236813739259974 153 123 124 0.11913214763077501 13 2502 10 706 15 1702 17 644
31837 -2.1055359340413435 -6.5653623805605816 9.3875944454733791 84 65 34 0.46529633043436264 12 44 13 2786 10 674 15 836 17 1705 14 44
31838 5.6663229028718032 0.7957523881612929 11.62060710982465 65 20 19 0.78183074997437108 12 12667 9 10098 10 8845 18 12735 14 12667
31839 5.6157488633168766 1.9109154152517351 13.298604004474692 43 33 29 0.64545220799344061 10 8940 11 10516 9 10082 12 13563 14 13563
31840 7.0491598706847549 3.7062871361743248 12.619830108037469 77 41 32 1.6450049956052248 11 9579 12 12770 9 9956 12 11238 14 11238 16 7086 14 12770
31841 6.6359982276973115 2.7598992622803387 12.161702440473055 67 27 21 0.72586482923483475 11 9576 12 11193 9 9794 14 11193 16 7000
31842 5.4426990360185652 2.1946759660238762 14.308036753289803 29 23 29 0.55916969417077633 11 8280 9 9356 10 8495 12 11082 16 8703 14 11082
31843 5.8466489743562535 1.0239214166504278 11.574725155030192 93 80 57 0.36746902966114853 10 7303 11 6721 9 8957 12 5612 14 5612
31844 5.2371699075956295 0.82427902364597483 12.688901037386621 92 77 60 0.26694246305180708 11 3939 12 788 9 7915 10 6146 14 788 18 11967
31845 5.6221499452111248 0.79571090414662538 11.742720184583607 68 25 26 0.48686775261980003 11 641 9 5218 10 2561 18 8452
31846 0.53322648104606829 3.9459314970149357 16.988339577091811 155 159 142 0.24137321922489441 10 737 9 393 2 621 6 479 7 475 1 621
31847 -0.71696082796197402 9.2899908118489201 17.256987550188839 42 42 42 0.20624968942970087 10 3287 9 191 2 395 4 273 6 256 7 293 1 395
31848 -0.71696082796197402 9.2899908118489201 17.256987550188839 42 42 42 0.20624968942970087 10 3286 9 190 2 394 4 272 6 255 7 292 1 394
31849 11.670894547306517 8.2718310476284191 8.4807892922062145 50 11 18 0.88818009302435741 11 10690 8 12292 16 10770 24 10676
31850 10.980643207624418 6.8300251348824537 7.9888291495731929 72 64 46 0.54592713039168717 11 10683 12 14454 14 14454 16 10676
31851 10.462138387152413 5.7485977799695913 7.78674673960976 100 85 54 0.22571469539931105 12 13229 16 9156 14 13229 11 9900
31852 -1.455376321448659 8.5411396982500136 16.692940265383097 124 102 80 0.3235921002453277 9 10208 10 9046 2 3205 3 4494 4 3241 6 11165 7 2934 1 3205
31854 2.4672050711264033 5.785495519417629 18.074014209506547 12 7 15 1.2117709684185152 9 10025 10 9024 9 10136 2 3106 3 4305 4 3217 7 2881 1 3106 6 11107 3 4498
31855 -3.3104147055577298 4.4063132527679132 14.959836996909381 150 147 123 0.35129493295931052 9 9987 10 8865 2 3136 3 4377 4 3159 7 2836 1 3136
31856 1.7669685451780746 6.5597397735372667 18.071851042066928 14 11 15 0.39101020743196885 9 9137 10 8614 7 2718 4 2992
31857 0.80822445472776494 2.5765580460603137 15.820932326642918 114 108 84 0.40936696408147732 9 9173 7 2609 2 2589 3 4020 1 2589
31858 1.8515561212119647 6.7720827643371013 18.125682258388043 14 11 14 0.11017044767331874 10 8616 7 2556 6 10006 4 2776
31859 -1.9717309119760773 -2.1592835832024346 15.44531777546767 59 56 50 0.60025903593437768 9 9132 7 2551 10 6714 2 2987 3 4186 4 2993 6 10532 1 2987
31860 -0.21749624313800206 9.5519702459542746 17.543516379577937 59 59 46 0.17210840090178611 9 8430 7 2265 6 9218 4 2703
31861 2.1362742289221734 6.1619869539330123 18.032270402312719 97 94 78 1.9209390947193781 9 7483 7 2078 2 682 3 1824 6 6538 1 682 4 1798
31862 2.4805226461330623 7.5117341915571689 18.438267483110046 87 88 79 0.72929050415457364 9 7472 10 6870 6 9379 4 2518 7 2064
31863 1.294983610845813 7.1365251740494511 17.757263439175777 22 21 18 0.21164591857150886 9 8467 10 7602 2 2219 4 2417 7 1989 1 2219
31864 -1.6790852092783373 7.4019709521383543 16.338950123064404 65 65 51 0.27913503314285631 9 7320 10 7461 7 1931 6 8076
31865 0.16717763377130718 7.6966355977288661 17.251269903320029 49 51 39 0.13052787051877973 9 7367 10 6646 2 1794 7 1632 1 1794
31866 0.3463560611682881 8.1252189434432474 17.376745357114469 57 61 53 0.47056174381944699 9 7366 7 1631 2 2197 3 3192 4 2384 6 8138 1 2197
31867 -0.45726806344327386 6.4757134698081744 16.6979547310047 76 77 71 0.66525121478649107 9 3474 10 5314 2 2195 3 2602 4 2077 1 2195 6 6406 7 1619
31869 1.8115631414024067 6.2963890233580715 17.790278989708586 150 162 171 0.82659156750229357 9 7452 10 5543 2 1376 6 6512 1 1376 7 1206 4 1763
31870 -1.2570827207959663 7.1545582887006436 16.522880240488767 69 68 58 0.30999481434788739 9 3416 10 5260 2 419 4 985 7 1052 1 419
31871 -1.7354224841675669 7.3954595815993178 16.286607803763204 36 34 23 0.23172403429150035 9 3382 10 5234 6 3751 7 1022 3 291
31872 -0.3982980377587329 6.5201321992633083 16.758393118439955 34 35 25 0.28253385482068055 9 290 10 568 7 391 2 482 3 409 4 340 1 482 6 351
31873 -0.63378788265100172 6.7552300075692076 16.837727169724552 65 66 58 0.23195417513125322 9 262 10 523 7 360 6 322
31875 -0.75377047779172379 6.6214571464544161 16.597760975080011 32 31 20 0.17182094353442465 9 253 10 515 6 312 7 355 4 301 3 363
31876 -0.62472665984878273 9.0564188011671547 17.285599399647083 45 53 51 0.30673863018472936 9 202 10 3295 2 409 3 327 4 973 7 303 1 409
31877 -1.53822763484798 7.2932509716176659 16.375997501330364 68 67 54 0.25823958066947122 9 177 10 409 2 397 6 252 7 290 1 397
31878 -2.9307104545866789 9.6683010262925269 15.998158875733411 26 21 15 0.28346273988328774 10 5122 7 111 2 1097 6 6277 1 1097
31879 3.7131496789019467 1.8565318942565485 17.341873795043 12 7 14 1.0610291965703817 9 10052 10 8918 6 11014 3 4427
31880 3.4816494674668403 7.1248478320681929 18.945325360569147 24 17 22 0.69317817699339623 7 2888 9 10031 6 10990 3 4409 4 3223
31881 1.8362838785789288 6.0949060342922943 17.836761996726828 15 8 16 1.0986979880163763 7 2872 9 10011 6 10981 3 4461
31882 3.6546866420540161 1.1574578235449717 17.231558090477638 68 52 21 0.25380856403259605 10 8691 9 9659 6 10628
31883 -1.9246698481337752 -1.8693096267564913 15.637094835829961 91 86 73 1.070361219087544 9 9584 6 10530 2 2769 3 4004 6 9998 1 2769
31884 7.9229847508427671 6.4246853044180234 14.392795370942757 59 19 22 0.7569574030126599 8 9619 9 9780 11 9552 12 13662 14 13662
31885 1.8515561212119631 6.7720827643371022 18.125682258388046 14 11 14 0.11017044767324832 7 2555 10 8615 6 10005 4 2775
31886 8.3908020647965689 7.2528111872732914 14.576426322358468 89 83 51 1.0879235332759554 9 9474 11 8391 12 12930 14 12930
31887 7.3307730801741799 5.0867521674749572 13.947858855001131 19 15 19 0.13304403760114908 9 8130 11 4116 12 9177 14 9177
31888 3.7444663834122371 2.3081273847938282 17.447973102863298 113 110 92 0.16540877970049939 9 8665 6 9501 10 7882 12 10944 14 10944
31889 2.2370711560459613 6.9315778657701754 18.235893229140007 79 77 62 0.6378994613782808 10 8264 7 2384 6 9374
31890 1.7216173083854907 7.337774595987808 18.049673936700199 23 19 18 0.65560328932196521 7 2317 9 8490 2 2516 6 9291 1 2516 4 2448
31891 -0.80891687704834525 9.9365834018100134 17.261354169962345 66 63 47 0.21328348482968579 7 2242 9 8407 6 9201 4 2342
31892 -1.0927004900346029 10.101344065686551 17.137237433192833 68 64 47 0.30387931594805068 7 1924 9 8402 4 2328 6 9191 3 3529
31893 -5.7825434966118712 0.96564541491646771 14.291958610340032 115 108 87 0.30036580403196156 7 2218 9 8377 6 9171 4 2011
31895 3.8894616411357066 5.7018288312192995 16.808422168748198 143 130 91 0.23082542477254633 7 2146 9 7538 6 6602 3 2771 2 1978 4 2226 1 1978
31896 -2.5423473204084717 -1.8794614257834523 15.212698205167062 92 95 116 0.75166770329974886 7 1647 9 5882 10 661 2 1830 3 3238 4 1685 6 6437 1 1830
31897 -3.14160163118017 -1.1532754834487942 15.404705077007252 236 238 248 0.24782565341533092 7 1638 9 3498 2 1809 3 2629 6 6415 1 1809
31898 0.090500983218214759 9.5630512442225069 17.666263571623709 67 64 52 0.26264796248843331 9 3436 6 6378 6 8104 7 1602 4 2043
31899 -2.2570804213730531 7.5885235836523988 15.965035203367787 32 30 17 0.31763917744013009 7 1565 9 7307 10 5201 4 2008 6 6334 3 1538
31900 0.82974438253428129 6.7842773453643908 17.336223714026712 21 26 27 0.31117315683169505 7 1642 10 5383 2 1268 6 3855 1 1268
31901 -0.40161437960650864 6.0618158643154496 16.944876714237591 77 91 59 0.38926083835346081 7 1635 10 5333 2 1800 3 2610 4 1660 6 3838 9 3493 1 1800
31902 0.13914736913422043 7.9675068765262846 17.35524979229908 46 46 32 0.1798365359525205 7 1113 9 3477 2 1228 3 388 4 1067 6 3823 1 1228
31903 0.093904477150027837 8.183427505487785 17.387989171308273 40 37 26 0.20068524424068013 7 1099 9 277 10 5317 6 3816 4 1058
31904 0.92477441770286473 4.8844846821922756 17.398850363652297 161 164 158 0.23996548350115104 7 480 6 486 4 450 12 42 14 42
31905 -0.82289659641725288 7.8309897984022685 16.950643112658096 106 92 73 0.44253579912763247 7 318 10 3321 2 427 9 3428 1 427 6 288
31906 10.106902866262942 8.5058493405634596 12.041102391104273 43 9 15 0.6184970948467462 5 9868 8 11177 12 13831 14 13831
31907 10.34783180698193 5.1517544922342031 7.1565967721849573 28 24 20 0.35858194514194192 11 9177 12 10138 14 10138 16 5179
31908 10.904218329721047 6.9325304174835578 8.3644806877141153 93 78 51 0.9519577027502496 8 10387 5 7785 11 10384 12 13913 14 13913 16 9290
31909 3.128959558309929 6.9576334090134582 18.931813612369002 150 159 182 1.1940682680836849 7 2883 9 10026 10 8983 4 3221 6 11110 3 4465
31910 3.0348322063045958 7.3314860464438052 18.757861337259044 20 14 21 0.4437686641648379 7 2924 9 10137 4 3216 6 11106 10 9028 3 4464
31911 3.2903880309983164 6.6264105794517327 19.030910542146639 95 90 69 0.7738168387606178 7 2889 9 10032 10 8909 2 3109 3 4307 4 3193 6 10823 1 3109
31912 -2.3355773175192094 -4.8477839273146115 12.714157762922554 124 117 133 1.1616926421062115 6 10818 12 13976 4 3188 10 8786 15 4824 20 5919 14 13976
31913 0.91318066041520285 6.6842425476645779 17.384996586982009 14 11 17 0.39027071919627937 7 2858 10 8964 2 3144 3 4390 4 3211 6 10975 7 2909 9 10003 1 3144 4 3177
31914 0.91318066041520285 6.6842425476645779 17.384996586982009 14 11 17 0.39027071919627937 7 2857 10 8963 2 3143 3 4389 4 3210 6 10974 7 2908 9 10002 1 3143 4 3176
31915 -3.2520459163798323 4.1227756666769793 14.989728250197482 11 10 14 0.79501318616522598 7 2693 9 9558 6 10788 2 2956 3 4157 1 2956 4 2952
31916 2.9500718357369839 6.9037259166232827 18.95307790001846 146 157 180 0.72719639341546138 6 10088 9 9199 2 2610 3 3722 4 2871 7 2411 1 2610
31917 2.1833291780887669 7.0648134183504476 18.230210715346693 18 14 16 0.29403976437299412 6 9347 4 2785 2 2551 3 3643 1 2551
31918 2.0275479501005353 7.0750442189838427 17.880602895300783 18 13 16 2.1809487244579562 6 10003 7 2554 2 2767 4 2770 1 2767
31919 1.5029394485016563 7.2923347440808381 17.591633462973313 104 140 132 2.0293817548071695 7 2302 10 8202 9 9116 2 2495 3 3593 1 2495
31920 1.5608115979777701 7.5497849022840926 17.949756807777483 102 137 129 0.7609362696487274 7 2530 10 8602 2 2748 6 9980 9 9121 1 2748 4 2736
31921 -2.9588250114333472 -1.6044204428066193 15.020327429469763 125 124 126 0.34064540037539165 9 8448 4 2718 2 2473 7 2284 1 2473
31922 1.3276732224124217 8.1385343354299007 17.88307525842615 113 148 133 0.82801573262554207 7 2516 9 8452 6 9245 10 8175 4 2716 6 10513 7 2707 10 8589 3 3951
31923 -2.9237030334616398 5.1081208805842486 15.310184096360437 159 158 135 0.67625365007086768 6 9196 10 7448 7 2239 2 2715 3 3932 4 2692 9 9084 1 2715
31924 -2.9237030334616398 5.1081208805842486 15.310184096360437 159 158 135 0.67625365007086768 6 9195 10 7447 7 2238 2 2714 3 3931 4 2691 9 9083 1 2714
31925 2.9067828420907609 6.5726251106562605 18.875391515101125 83 80 63 0.58021709580705105 6 8262 9 8582 4 2558 2 2295 7 2420 1 2295
31926 -2.2200233732986985 -2.92648946538193 15.640837481358721 17 10 13 2.6498228702096638 6 9334 9 8505 2 2561 4 2502 1 2561
31927 -1.9208821760692552 -2.3927624773871705 15.510502092297354 14 8 12 0.40887879764477564 6 9340 4 2499 10 5397 12 5007 14 5007 9 8510
31928 1.1480178898048143 4.3814425426314383 16.694567412620383 80 77 58 1.8267126548272525 6 9342 4 2498 9 8521 12 12429 14 12429 3 3653 10 7642
31929 -0.29286593845311049 1.047105902349958 15.206124791718564 71 65 43 1.7661194998513514 7 2362 9 7413 10 6733 2 2554 3 3682 4 2492 6 8213 1 2554
31930 1.2837710150719601 6.8316506139732258 17.686460872826558 109 143 136 1.6902704644359852 7 2303 10 7615 9 7384 2 2226 3 3215 6 8165 1 2226 4 2424
31931 1.4325726517440227 7.5073743770376637 17.885206570984153 26 25 23 0.13382010114752169 7 2296 9 8463 10 8193 4 2412 6 9263 2 2490 3 3591 1 2490
31932 1.432572651744022 7.5073743770376637 17.885206570984153 26 25 23 0.13382010114749188 9 8462 10 8192 2 2489 3 3590 4 2411 7 2295 1 2489 6 9262
31933 1.5106110776264976 7.6965097052152727 17.939421670936827 22 22 22 0.15886692508157113 7 2293 9 8460 10 8196 4 2409 3 3588
31934 1.1075613297484852 6.9228364016944948 17.614893377979058 100 137 129 0.50566643143800416 6 8153 10 7585 9 7378 2 2484 3 3587 4 2406 7 2290 1 2484
31935 0.85178355361818781 6.8860322699658614 17.36317910209485 121 156 141 1.0682522434735164 6 9247 7 2517 9 9101 10 8587 4 2400 2 2970 3 3952 7 2708 1 2970
31936 -6.227811547930914 -2.7430410246395431 10.245681182343885 44 50 50 0.57536528434430345 10 7420 4 2326 15 4518 17 4185 19 4219 20 5728
31937 -1.5543071028516602 10.401764050400574 16.929302575584845 69 64 51 0.33848497355371493 6 9165 9 8372 7 2214 4 2311 3 3518
31938 1.576085613654622 6.8565464919706969 17.890488121976862 161 174 177 0.39145536054581404 10 6795 9 7400 7 2002 4 2115 3 3226
31939 -3.2623662834955209 -4.3468019676209613 13.527521574346499 74 67 44 0.39030666300664363 6 9275 10 7548 2 2247 3 3634 1 2247 4 2109
31940 -0.23936846688447594 6.7845165076672727 16.836388915899718 61 65 56 0.28168477968979144 7 1977 9 7364 10 7530 2 2198 3 3194 4 2082 6 8137 1 2198
31941 -0.56376002608326281 6.4969893201054294 16.714871060777842 29 28 18 0.55197835109834492 7 1973 9 7360 10 6629 2 1786 3 2598 4 2073 6 8129 1 1786
31942 -0.29901290030136474 7.4030266198141756 17.137629788247136 14 16 14 0.24085215548600297 6 8127 4 2064 2 2186 3 3181 1 2186
31943 -0.73367178626643248 6.697996998366972 16.694527726415149 64 62 50 0.85864327223615544 7 2274 9 8436 10 7511 2 1774 3 2582 4 2054 6 6393 1 1774
31944 -0.89070077666689829 6.7730939152253837 16.629523241745069 63 61 48 0.29767246915872586 7 2270 9 8434 2 1768 3 2576 4 2049 6 8110 1 1768
31945 -0.88779464074884529 6.7699143309586871 16.631091926834007 62 60 47 0.32324714087260148 7 2269 9 8433 10 7504 4 2048 6 8109 3 2575
31946 -3.1699001990162379 8.0358564118736648 15.452897287821051 64 57 40 0.38702283020269829 6 8015 4 1979 2 1708 3 2502 1 1708
31947 -2.0645203114857447 10.802725561167168 16.685554815850878 38 34 19 0.40480607278739084 6 8019 7 1528 9 5747 4 1973 3 3104
31948 3.0298495855201351 6.0938013036432945 18.461069446211045 107 102 83 1.3022022158684714 7 1779 9 3700 2 1453 1 1453 3 1869
31949 1.3328738437146543 8.2468378022477733 17.87145769453964 114 148 134 0.40443891142774546 7 1126 10 6722 9 5875 3 2621 4 1666
31950 0.46954328630968112 9.1273240114905896 17.840472400409023 26 25 15 0.13059938812177657 7 1103 9 3473 6 6405 3 2591 4 1644
31951 -1.6197352662931386 10.49452139383188 16.898764183553993 37 33 21 0.5066284026989647 7 959 4 1561 6 3664 3 1525
31952 -0.7971359855139436 6.8369056129305648 16.722661237037123 71 72 59 0.13517718460522546 7 1078 9 3447 2 1214 3 1638 6 3801 1 1214 4 1033
31953 -0.79765015465756428 6.8367114078264262 16.72359071513986 72 73 59 0.13651905858375901 7 1077 9 3446 2 1213 4 1032 6 3800 1 1213
31954 -0.8530582105101856 6.8404577173102989 16.692739665458404 26 26 17 0.17048652807079429 7 1073 10 5287 2 1210 3 1634 4 1029 6 3797 9 5849 1 1210
31955 -0.86618508586855636 6.9094766407455825 16.710412285002857 56 54 44 0.27271905742290442 6 3795 7 1071 10 5286 2 445 4 1027 9 3441 1 445
31956 -0.94094794568482576 6.7449155517196857 16.555976764931629 32 31 18 0.28762680636314097 6 303 7 1605 9 3439 10 5282 1 444 4 1025 2 444
31957 -1.1015166979277777 6.8794502828550321 16.521799300854145 64 60 48 0.27610357772136362 7 1599 9 3432 2 434 4 1002 6 294 1 434
31958 -1.7566300922015854 9.1034353408083319 16.6264203266267 74 51 30 0.15687612695781544 6 6333 10 5192 2 1145 4 881 7 985 1 1145 3 1534 6 3709 9 111
31959 1.2819817353714289 4.2727245733113746 16.593354856255601 151 156 146 0.21579947675702341 7 546 4 490 9 447 10 3610 12 79 14 79 6 559
31961 -2.8237888596340497 -1.8357564001064239 15.114188262069154 110 117 147 0.32122020180266053 9 330 7 1128 6 3859 3 471 4 380 1 536 2 536
31962 -1.1261453931874044 6.7959004542840837 16.404161230684149 35 33 21 0.31003403287393916 7 322 9 222 10 474 2 433 3 348 4 290 6 290 1 433
31963 -0.78619718149282647 7.9089606651397775 16.936162474154251 98 82 63 0.33797306503829533 7 317 9 220 4 289 3 340
31964 -1.003534583992711 8.9689452611655494 17.037450691243869 83 86 85 0.17977695482119888 6 247 9 172 10 3280 2 389 3 1574 4 259 1 389
31965 -1.8763399376688381 7.4906454269375802 16.217119066428598 38 36 23 0.14891768674998199 7 1010 9 3368 10 3269 2 360 3 272 4 233 6 231 1 360
31966 0.21158291153699824 -2.5608682472408271 15.229238452539265 20 17 25 2.3051787527216412 4 3268 2 3245 3 4525 1 3245
31967 3.9150964293681878 4.3761951345391328 18.268061279473738 168 179 186 1.3408865901688167 9 10190 2 3228 3 4506 1 3228
31968 -3.3123118224972892 5.0963235126417414 15.045226376101935 30 34 27 0.35533154214204715 9 10117 10 8861 2 3131 3 4373 4 3155 6 10951 7 2834 1 3131 9 9984
31969 -4.0034987631531491 5.7145064614805232 14.734647453193592 166 165 143 0.42084301802985646 6 10946 10 8750 2 3059 3 4263 4 3087 7 2779 1 3059
31970 1.5560687589832318 -2.1515595200497346 16.175683586186217 93 86 60 0.78017585661736355 6 10143 3 4080 9 7564 10 7746 12 8599 14 8599
31971 -2.5977478080371323 -3.230382728312104 14.984873411106907 10 6 17 0.26286343561650732 4 2769 6 9996 10 6701 12 10747 14 10747 3 3995
31972 -2.6076810281663505 -2.5748141198593544 15.192051521403201 22 17 23 0.45458218383738375 6 9984 3 3973 4 2455 3 3639
31973 -3.5922642077779035 -4.6405643729170407 13.322266479651653 44 62 34 0.53402501675108371 4 2744 6 9260 2 2751 3 3966 1 2751
31976 -1.624485711571386 8.8850973969179829 16.659363243880104 59 44 26 0.30798975502308074 4 2948 10 8756 2 2710 3 3922 9 9555 1 2710 2 2948 6 10495 7 2690 1 2948
31977 -4.1415412813264636 4.9776913055353846 14.56209487432494 36 40 26 0.38467990013644926 4 2942 6 10484 7 2683 2 2702 3 3914 9 9544 1 2702
31978 -3.9096221011942034 5.5613842278620025 14.802612283282617 34 37 27 1.0227830731583616 4 2674 6 9923 10 8079 9 9060 2 2943 3 3913 4 2941 7 2488 9 9545 1 2943
31979 2.9892079909890823 6.420095866313412 18.895314895884397 159 168 186 0.305482804086458 7 2430 9 8592 3 3735 6 9435 10 8310 2 2627 4 2879 1 2627
31980 2.9903726304083214 6.4193270588088263 18.893504996518672 159 168 186 0.28940225990264112 7 2429 9 8593 2 2626 4 2878 6 9436 1 2626 3 3734
31981 2.4622443619206282 6.1683349899295052 18.203509641578744 152 162 180 0.94080543467821454 7 2624 10 7723 9 8564 2 2602 3 3713 1 2602
31982 2.2390957215445852 6.9293442260658278 18.247385147350375 76 75 60 0.52628559422808174 4 2818 9 8539 10 8263 7 2383 2 2571 3 3658 6 9373 1 2571
31983 -1.3493105660696452 0.14998295072091203 15.151664923060281 125 121 91 1.0254044659402943 4 2440 7 2309 10 5363 2 1304 6 8168 9 7381 1 1304 3 3620
31984 1.5953754966524503 6.7333513709424118 17.852134274220141 13 8 12 0.3837289029118322 4 2762 6 9298 7 2544 9 8492 10 8216 1 2762 3 3612 2 2762
31985 1.3901963909075514 7.1478593998124822 18.206091531467226 17 17 14 0.60432905818230043 3 3599 2 2505 9 7386 1 2505
31986 -1.5039804532842507 8.8595830395659707 16.734060490111307 116 97 76 1.1934180784374291 7 2503 10 8106 6 9946 9 9082 2 2441 3 3533 4 2334 6 9193 7 2236 9 8403 1 2441
31987 -3.6513515462901522 5.2105497008200325 14.868338433350242 34 36 26 0.56541192506506677 9 9063 10 6503 2 2124 3 3523 4 2315 6 9159 7 2215 1 2124
31988 2.9067828420907609 6.5726251106562605 18.875391515101125 83 80 63 0.58021709580705105 9 8581 6 8261 4 2557 7 2419 1 2294 2 2294
31989 -1.2185265093176945 8.0457326952048795 16.739099292453719 78 81 71 1.423622222333089 6 8085 10 7468 2 2448 4 2698 7 2253 1 2448 3 3148
31990 4.2213108962317083 2.7824829525306534 18.079867970226559 32 27 13 0.68209432626273758 6 8336 9 6138 10 7148 12 5389 14 5389 3 2874
31991 -0.71643525195039393 6.7647250928619789 16.751791232446923 32 30 19 0.84898425212329487 6 8112 7 1955 10 6615 2 1217 3 2584 4 2053 9 5850 1 1217
31992 0.13621692239064678 8.7975212614547633 17.68622737569687 15 29 18 0.94249152338167697 6 6396 7 1959 9 5854 10 6627 4 1043 2 2177 4 2373 1 2177 3 2580
31993 -1.6921892830476519 9.268546383805603 16.69991442474619 120 92 68 0.22252282852284602 4 2000 7 1912 9 7306 10 6508 2 1725 3 2525 6 8057 1 1725
31994 -2.0281765122195043 9.232901368148978 16.506918750760139 78 61 35 0.33964386390444989 4 1996 10 7401 2 1135 3 2518 7 1554 9 3311 1 1135
31995 -1.0017547661148443 6.9290097222688702 16.621829308650021 29 29 21 0.3160204323282127 7 1600 9 5838 2 1201 6 3789 1 1201 3 1624
31996 -1.3015173086783642 7.1290566493008889 16.488966800538712 29 29 19 0.27249119951791539 4 1613 7 1590 9 5825 10 5258 2 1185 6 6362 1 1185 3 1598
31997 -1.7424079488387569 7.4661119347939282 16.29819710583768 59 57 44 0.2840338892771177 7 1021 9 3380 10 5232 2 378 4 944 6 239 1 378 3 287
31998 1.0583276671819906 4.2833210535288728 16.5062556803497 176 183 176 2.1748465377585768 10 9019 9 10130 12 14477 14 14477 6 11096 3 4401
31999 -6.30753381364518 -7.3109869856090102 7.4437794745430095 118 104 76 0.17978991936093255 66 1364 67 2108 70 1706 71 2168
32000 -5.9696641305413172 -6.4993815607141761 7.7855721360344496 119 104 77 0.54498921234933095 66 1363 67 2107 70 1705 71 2167
32001 -5.9696641305413172 -6.4993815607141761 7.7855721360344496 119 104 77 0.54498921234933095 66 1362 67 2106 70 1704 71 2166
32002 -5.6583615921383892 -5.7969862178664311 8.079380559000974 117 101 72 0.49857335645515216 67 2111 70 1703 71 2165 72 1182 66 1361 74 7576
32003 -1.9020673934665711 -3.7820135297263247 15.186343405897198 7 4 13 0.38247079961586616 2 3155 3 4306 4 3190 6 10989 10 8595 12 13475 14 13475 1 3155
32004 -1.341994952744558 -2.3700751449948805 15.786951246504952 10 5 15 0.62395167754237935 2 3154 3 4408 4 3189 6 10988 7 2919 10 8889 12 14287 14 14287 1 3154
32006 -7.6845037239284766 -6.3263658519046082 6.6929778579331201 126 109 86 0.54338244782292744 10 8083 13 4941 15 4514 17 4028
32008 -7.7384256943394361 -6.4341831902070599 6.7058400545451491 123 107 84 0.74315741936932145 10 8082 13 4940 66 1337
32012 -7.1025854895675993 -4.9128303571641769 7.4130083077804816 117 103 76 0.33443622092523684 66 1334 67 2077 70 1681 71 2139 72 1164
32013 -2.6450809638761053 -9.5442343923341468 8.9036845687535795 146 126 101 1.6870959422448497 2 3111 3 4315 1 3111 10 6707 15 3601 17 3126
32014 -2.5744595379750166 -3.1373480911184211 15.05227638003147 14 10 16 0.18196371824730237 2 3101 3 4185 6 10816 1 3101 10 8167 12 12415 14 12415
32015 -4.0255482368336617 -6.6577676867053137 8.6853290769467488 166 150 139 0.6026051589555641 2 3093 3 4287 1 3093 10 7508 13 4817 15 4002 17 3527
32016 -6.1361022513549575 -7.4008948523748845 7.520836647612934 211 197 198 0.56561882002669239 2 3078 3 4282 1 3078 66 1331 70 1665 71 2046
32017 -0.99527410757243939 8.0085171582723298 16.863989799106385 40 43 30 2.2519154594201027 2 3073 3 4279 6 10797 7 2802 9 9827 1 3073 10 8870 2 2724 4 2958 1 2724 10 8770
32019 -1.5203468911202964 -4.0270997205723038 15.331046033914578 7 5 15 0.58230025657175366 2 3009 3 4207 4 3126 6 10821 12 13490 1 3009 10 8605 20 5930 14 13490
32020 -1.8265813524385992 -3.5063713767253617 15.329725091629797 14 8 15 0.12451685510580231 2 3000 3 4200 6 10557 4 3028 10 7596 12 12469 14 12469 1 3000
32021 -1.5714688919862032 -2.848931635061613 15.625835544717198 15 9 14 0.42702575165073209 2 2997 3 4197 4 3025 10 8188 12 12473 14 12473 1 2997 6 10554 9 9603
32022 -1.4636574389309283 -2.6100028981462313 15.667283428439783 10 6 13 0.3174930293545894 2 2996 3 4196 4 3024 6 10553 9 9602 10 7607 12 12476 14 12476 1 2996
32023 -2.0151164448371519 -3.5772398094423603 15.226926755351107 82 77 65 0.47245776746673651 2 2993 3 4195 4 3006 6 10544 10 7582 12 10777 14 10777 1 2993
32024 -2.1945671655825221 -2.2195588837419544 15.381255465454991 13 10 17 0.21200807753419024 2 2982 3 4181 4 2988 6 10526 9 9582 10 7574 12 12416 14 12416 1 2982
32025 -6.0050064051199721 -7.4935055630848382 7.3830669841057999 176 160 153 0.1818947561842276 2 2965 3 4170 1 2965 10 6567 13 4461 15 3359
32026 -2.7972540362977427 5.147713448717278 15.367999086158797 12 15 17 0.46627395514282266 2 2958 3 4155 1 2958 2 2722 4 2950 6 10498 7 2692 9 9560 1 2722 10 8547
32027 -7.3298644126742634 -2.8558946356035184 7.3519264847196535 182 171 174 0.69394490456306002 2 2936 3 3886 4 2646 1 2936 10 7373 13 4730 15 4221 17 3765
32028 3.5847525336844761 3.0514168283528433 17.809545935281978 171 176 179 0.21364312590167744 2 2896 3 3782 1 2896 6 9484 9 9240 10 8374 12 12579 14 12579
