ply
format ascii 1.0
element vertex 704
property float x
property float y
property float z
property uchar red
property uchar green
property uchar blue
end_header
-13.112172205456483 4.907930595128323 -11.167478355986757 167 153 138
-13.933313215007518 5.582990193129774 -9.384586210299055 193 169 154
-14.564146811854437 6.068541064628682 -7.977322868450455 191 170 153
-14.946132641646637 6.427701578288547 -6.978948253824898 196 176 157
-13.399350388101581 4.827702556006884 -11.355264086793104 183 163 147
-12.445206317707388 4.171851160482288 -13.471405067022529 84 90 73
-13.149265126179696 4.546818927998293 -12.157873432027733 173 166 156
-11.957144688809048 6.729386570432809 -3.355781815525628 183 144 120
-12.989089239322755 6.237058886185672 -4.690000212956153 211 185 165
-12.363601885599303 5.006432958926269 -8.27542116892232 186 151 131
-13.060446444782954 7.182460310535623 -3.9912593635979174 142 114 95
-13.065789135702735 7.18457595524648 -3.993365720331498 142 113 95
-13.228383970753114 5.237417640064386 -8.102550481028993 166 124 94
-13.143239269140457 5.07827327151053 -8.539145093428562 171 133 104
-13.172445018287219 7.196605596313806 -4.2530003518779305 158 128 109
-13.594312351711366 7.196267413434679 -4.573615659922917 205 168 152
-13.487969156085864 7.384771755855042 -4.289433119573285 186 152 128
-13.53595801927697 7.101878273857248 -4.963661166306658 144 121 97
-10.262174706488693 3.826665639876818 -14.158746554507202 119 86 61
-13.721974357561248 7.327030029847406 -4.540879981053054 133 116 96
-10.451367188290218 3.922474410166431 -14.095081567985346 193 169 149
-11.960684514520043 4.502144205431977 -12.09822531912859 174 162 148
-13.768922063390784 6.4783844869227005 -6.843822227975165 108 80 57
-13.249322611809214 5.715946954546754 -8.813587039735069 179 143 115
-13.673311664353173 6.356347037919271 -7.246169218280741 194 163 142
-14.283221281556422 6.614430519584692 -6.324569605235135 153 126 103
-10.765599053680079 3.557981810150934 -15.17314449076023 140 117 106
-11.637081653510787 4.147110728673351 -13.559876608393212 187 171 156
-11.53320938436478 4.076462104738871 -13.829730526517341 135 132 119
-14.273684276279994 6.05963337299784 -7.970099214733963 150 138 123
-12.126778556456006 4.107453110001712 -13.662504227205394 206 177 161
-15.301570632543317 6.452026039029283 -6.833597627070322 202 175 162
-12.25104501524268 3.7839756163579477 -14.543419093436851 196 175 158
-11.48287644429784 6.881070978117227 -2.876534109749611 207 178 155
-12.100967843786758 6.73051935522002 -3.404886345347689 211 185 167
-11.372440834346715 4.5111425202912425 -9.60978379336867 215 184 160
-10.358071178866815 3.650059532865029 -12.18023827921789 218 193 172
-12.255681576206992 5.0106354751628785 -8.173404181483585 214 185 164
-12.247043960723312 5.134693498324118 -7.9718172364902475 192 149 122
-12.873128027099046 4.8559888280051124 -8.635773416172801 222 197 176
-12.879118586417539 4.429384509794707 -9.924324334322971 219 183 153
-12.693365787899529 4.5133390055053635 -10.122482434164025 121 84 42
-12.996533781111745 7.324838377646999 -3.905764953857168 172 142 123
-13.177512758359713 7.418178692146625 -3.959493324203434 130 109 84
-13.170580457528667 7.422242601814329 -3.9533895726024646 128 108 83
-13.425103122281195 7.233443142212241 -4.421629952047892 124 96 70
-13.429235200885287 6.878084923480711 -5.5833288024874275 99 73 47
-13.288229470362504 5.796779821220499 -8.174124644803904 158 114 90
-11.92660103077565 4.485294338876355 -11.979637936731722 95 65 32
-13.485557485240863 6.395341821128674 -6.988699315031306 177 147 126
-12.656063622791926 4.960533687360666 -10.522183795912955 200 160 136
-10.52828330813505 3.8693614509803 -14.34590060259281 191 163 146
-10.474882157079414 3.6938893865095617 -14.827724599725192 207 169 145
-13.630755934977598 6.326263460621601 -7.297652141590496 192 164 145
-14.501062036605644 6.922596777495243 -5.537442683992195 198 171 155
-12.435179407038445 4.763705690728959 -11.560577415894064 199 169 149
-14.205604529404445 6.718559357574648 -6.365188642371519 179 155 136
-14.177727345249894 6.091429578692066 -7.861829275840838 190 157 140
-15.024775146591088 6.851861502970941 -5.763190204599004 193 164 145
-12.870505725837065 4.597245919500541 -12.026479618961678 181 171 161
-12.906456677909977 4.519517772539339 -12.314262193493354 162 150 135
-15.275949220908059 6.470618795683966 -6.716987441804511 188 165 150
-12.879608834002768 4.353961955757442 -12.858802184776696 179 162 146
-12.879608834002768 4.353961955757442 -12.858802184776696 179 162 146
-11.894323294020023 6.151177011549849 -5.001731924741372 207 180 159
-12.226447789984787 5.4772672170807155 -6.727803211654212 213 181 158
-9.73289514812752 3.409021657323402 -12.717194861406833 217 188 165
-9.73289514812752 3.409021657323402 -12.717194861406833 217 188 165
-10.90425811837822 3.748114163393887 -14.566398667373035 176 170 160
-12.938123892646766 4.934631377340475 -10.694022735229316 179 148 120
-10.720772813003867 3.620188779011553 -15.03975325079308 114 103 91
-10.720772813003867 3.620188779011553 -15.03975325079308 114 103 91
-14.01535165786687 5.551679331122731 -9.441184142759662 198 171 154
-14.285300090862544 5.844495550180658 -8.687664360918879 197 169 150
-7.579615487308471 2.694927297255959 -14.86514528832946 208 172 148
-10.855226792357124 3.263220916141215 -13.292002708045425 217 185 160
-13.521946380360033 5.2210911346097655 -9.39989153129717 208 175 153
-12.701639011442042 4.867429696872286 -11.304166694352668 187 161 140
-13.235538796076819 6.483883426320411 -4.393911988152838 113 86 52
-13.904120442008848 7.207599150990046 -4.883824256829271 192 167 150
-10.310456954993445 3.604459547898057 -14.997113460659985 136 109 92
-14.489246811569817 6.898795217498497 -5.434698650942154 164 144 128
-10.30222951912719 3.0247922489801646 -13.919861978960688 205 176 154
-9.671415341126929 3.161792080992218 -14.541434988484106 207 176 156
-13.612079754936987 6.5559628831985854 -6.686331178536101 131 107 83
-14.18482381040862 6.741896221212199 -6.111998574043755 136 111 86
-14.946079015831998 6.862376823260378 -5.633439596131686 150 104 61
-13.091785147756251 6.378834337313599 -4.142407279790607 210 182 162
-13.467403253348694 5.380226334655027 -6.971752711231246 213 185 166
-13.44029960745496 7.171406693751051 -4.326477725401292 130 102 75
-13.40543871746099 7.1010322454862616 -4.820846812887177 136 93 46
-13.834765651902078 7.190326137098195 -4.804235763092494 186 158 141
-12.236372759843686 4.540639622762594 -12.21109869162854 181 151 131
-11.323577615778975 4.145122847401398 -13.649600463197505 178 153 133
-14.00728955826159 5.964481999280774 -8.248695236783915 196 172 155
0.6030418786845144 -11.570883766700724 -9.744426188446223 193 147 117
3.668233205182126 -8.381980772485534 -9.392628614207416 120 100 81
5.250909710930432 -7.052301102968091 -8.058898159206166 64 47 23
-0.3255367011966152 -8.994174925880289 -10.926588049743847 215 178 154
5.257648365456479 -6.794906777579503 -8.572347665943376 168 138 118
5.119725622834341 -6.678572410118268 -8.52551046330715 181 151 131
6.7145250951556354 -5.865254279988146 -6.365015846237934 95 69 39
6.693167916645301 -5.863882394686218 -6.401622571784305 214 180 152
7.267563886768969 -4.8720298830709545 -2.941288626139791 124 82 51
3.9434200753711974 -6.561723974770245 -10.067475177065978 211 180 159
5.5183145741380555 -5.837943094997931 -8.631054112009567 211 182 165
5.483932699020572 -5.755809160232338 -8.679731389778114 176 143 120
6.8148997398060835 -5.089736246424949 -6.40060512630519 164 135 113
5.511017140691211 -5.526858274697686 -8.856128184948354 192 166 149
7.347430499875571 -3.9155184615402923 -3.0639018690487934 150 127 113
-0.3716009212482154 -6.792147033418761 -12.058757452372673 182 152 132
3.534905655688135 -5.232021409917321 -10.855964532222988 187 153 130
7.263825658027713 -2.883473252370428 -1.7592931060061618 210 178 152
5.588621866175978 -7.023478255360966 -8.336805692554186 90 65 43
5.588621866175978 -7.023478255360966 -8.336805692554186 90 65 43
3.8154580147664325 -7.60511551780238 -9.615048797555982 94 68 44
3.8772075966882786 -6.942090338675877 -10.231086609276643 203 175 156
3.9261990769996316 -6.559816468669429 -10.114793277046116 151 117 94
7.333123434451379 -4.75828570311509 -2.764068676794392 195 172 153
6.832406299261961 -4.629532586295471 -6.7354859635013264 205 176 152
3.562112323467532 -5.967677045112835 -10.537611771552807 204 174 150
-2.5404278921344243 -6.950260358867609 -12.206272737642681 219 183 161
7.309538436250034 -2.7025664607455466 -1.6154724915185323 143 105 77
7.123417044525388 -2.7042886451212964 -1.3226102427946895 142 102 74
7.056403196202369 -2.3836989268841493 -0.4872799364283949 221 213 212
4.046307792016411 -7.576866616810825 -9.843156276812174 211 182 159
7.126077539983547 -4.305807517458177 -5.771188979913674 212 178 151
-2.0815911340123483 -7.767024201289318 -12.202068055394738 201 179 165
2.33623524729781 -6.056947683921012 -11.507399758650054 194 154 129
-2.6904722568197967 -11.575265982558784 -9.988965495897439 171 132 106
6.70016464984267 -5.911866084295321 -6.062453880931954 99 80 57
7.477176155763514 -3.766542035411003 -3.536647753980206 205 175 155
2.60534884014388 -6.015125959675217 -11.099148754857461 197 154 128
0.19750319260851162 -6.271798529876407 -12.18901720540134 202 160 132
6.30278387328916 -2.202520296413534 0.5254437758995042 137 90 56
2.5721343013960567 -11.489092866715003 -8.543704741162545 199 158 133
6.5585962972792515 -9.579466939060302 -2.6045709142697095 218 220 223
2.3545055785716613 -11.304634716503847 -8.920300834355233 195 151 122
6.580784788128085 -9.862497282038914 -5.123141786004539 195 163 141
-0.3036320709322645 -8.902785419029879 -11.077588995205108 168 141 124
3.8546106563806166 -6.5929103371985605 -10.144614604553844 166 134 108
5.1669636228625295 -6.12457961453178 -8.46672699521555 127 113 93
7.438360608550049 -2.4549260951134366 -2.147504571659155 0 0 0
4.8738860956137815 -3.7818675956210486 -9.830378586001961 195 160 135
4.504931740172651 -1.1712547376890738 -11.551945152938462 58 32 8
1.811408829852587 -1.151521272550966 -10.889375604648391 40 38 28
5.354289959176847 -6.808791916903039 -8.604154661559495 183 159 142
5.229408674914098 -6.75509621745644 -8.621405468339015 208 181 163
3.6022933055443582 -6.673041186330411 -10.009429010353495 123 92 65
3.9467133545553463 -6.465693330959419 -10.10795025130492 211 180 159
5.171714049196792 -6.005582915002848 -8.260026153748322 207 177 161
6.817882060328046 -4.956919310662102 -6.418771740085411 134 103 82
-2.7786039460927556 -7.705728306820094 -11.850531340873802 108 78 53
-0.662026492094044 -6.858090937518454 -11.901708373676875 186 155 136
-0.4350773368370174 -6.517494056106467 -12.13088054868816 213 183 162
7.386373795872399 -2.269119995584909 -1.9563536175870968 0 0 0
7.517445005934358 0.20349070210017672 -6.584454147704751 195 159 129
2.306669742481918 -1.5093978757936382 -12.229972297052823 65 47 21
2.7271968187817706 -1.0265796516023018 -10.685683851288621 59 54 41
2.1394396669410582 -1.0917144565914783 -10.765961801141588 54 50 38
6.800505300082395 -4.422415062923273 -6.2719447209055215 194 156 128
2.26493655555571 -8.148861846519518 -5.183317709287359 92 73 48
2.26493655555571 -8.148861846519518 -5.183317709287359 92 73 48
7.250181869892159 -3.938677464346757 -5.253055985758851 203 165 140
-2.9642153533304794 -3.7734908655903228 -13.58939458765164 203 173 154
4.103172561504026 -6.22084904724463 -9.961237160257676 212 184 162
4.103172561504026 -6.22084904724463 -9.961237160257676 212 184 162
-3.475061034403598 -7.721660569284612 -11.50153571286406 218 181 158
7.294527019301632 -2.539539758811009 -1.5955477602985568 206 166 140
6.089248864902218 -2.8237241643040685 -9.72871379000105 195 160 136
6.543725643997136 -0.2628378408050559 -8.604682901990278 195 168 152
1.249630395115823 -0.5624326868987067 -9.945911180372713 29 26 17
1.7131765809671518 -0.42147175953088034 -10.849795966756618 22 21 11
7.481445734090184 1.8485721862666538 -4.233430496353618 89 60 38
1.380427837138357 0.17648928002246445 -11.531930436299646 36 34 24
1.5198041657987806 0.3890175523649229 -11.195389765436474 86 86 74
1.4995757548745143 1.2008700505493215 -11.335900083933314 40 40 30
1.3732368381840825 1.6009482910858137 -11.513573335289466 65 66 55
1.8652489612066867 1.615542560314065 -11.405326561618974 45 44 33
1.2264479770300796 1.7068573291408062 -11.799413000855314 56 59 51
1.2654742704975037 1.7901413785117821 -11.801132374479895 29 30 21
6.477786397109418 -4.3073248713321695 -5.130050876909468 191 151 121
2.1997959845489206 -1.4902437710764747 -10.750507574973442 95 68 38
2.164800106424861 -1.3728673116076442 -10.771420602220598 44 40 30
1.4001482660059632 -0.7180997486220337 -11.29633929085541 47 48 39
1.236178262474421 -0.3994812376806599 -11.671789801692016 62 61 49
1.3772963638495548 0.2679426224871448 -11.557814353118198 26 27 16
1.6337138487457232 0.5402635646012879 -11.202968256859345 39 38 26
2.16346405887996 1.7882618386536469 -11.007779419190907 114 113 100
3.246285487218666 1.615126039271223 -11.399200873718874 80 71 54
2.1377997310258112 1.6986708035412539 -11.28583871670022 126 122 109
1.4522211911486345 1.5293623837149903 -12.043145801731635 40 39 29
1.2995157009186717 0.38911889614298584 -11.323954649612993 62 62 49
1.9279501428037316 0.430524367863126 -11.869040471402728 17 19 10
1.9602847895787294 1.0899092452203745 -11.20189712969838 71 68 57
1.3219694438435914 1.5112633388400332 -11.648474409388353 94 96 87
1.5085169927185302 1.802729185561824 -11.028558942107015 58 57 45
1.2768817887786181 -6.366825351631442 -11.712821519155339 214 184 162
6.6329186626398275 -5.864407219907608 -6.396712753402045 203 177 158
2.2004102576326203 -0.254599264250097 -13.297368453693723 167 133 113
7.5174132764635 0.14786453621851398 -6.3699926112300655 195 170 151
1.9521081748081597 -0.97013014529088 -11.331380437229111 15 14 8
1.8941593760020885 -0.7959972875769941 -11.02478698549898 17 16 8
7.508399540334511 1.7907031935282045 -4.213757865009667 103 73 53
1.8023839910264352 -0.37104449015850244 -10.654674515214047 28 26 13
2.193535025266475 -0.307792735116671 -10.569882344426368 91 88 71
2.193535025266475 -0.307792735116671 -10.569882344426368 91 88 71
1.4704916920258178 0.29119288048438124 -11.16802756404097 86 86 73
1.4567366629464482 0.8136401476160663 -11.378210127962022 81 83 71
1.2292288532732085 1.014820284465162 -12.145258323695405 63 62 52
1.3573580367183486 1.522813927533652 -11.686531070452526 96 96 87
4.408527542785118 1.2871169677156133 -12.381634235997572 45 41 28
3.2071806783461922 2.705395762159592 -13.402248829797367 207 177 153
3.9964689706852874 2.6878618662355787 -13.39111736349359 185 150 126
4.346902267987805 12.129623908537082 7.6264310188288 202 173 153
5.252119050359806 11.833700982405102 6.62922629003335 161 139 124
4.732875475663292 10.975548263494414 4.402802937977771 162 139 124
6.118221418854421 11.369172626774152 5.558916851482328 191 169 156
5.386029702400345 11.18001345541831 4.864475931424463 128 102 87
-0.7542679009847107 2.0940119866988343 -17.04189905632847 160 129 104
7.987940688908945 4.804822180358866 -8.722921097253487 191 161 139
9.081280608612541 6.091451323284698 -5.65912112351986 133 98 72
8.926743069807957 6.368395815583347 -5.140727269856435 209 176 153
7.043582458153699 4.079188904944392 -10.756102221429728 197 171 151
7.710802616896123 4.401159765406078 -9.907997354500916 224 190 168
9.242620695430523 5.572171361142351 -6.940205512777321 200 162 132
5.455236176800136 3.29319411587269 -13.003827523908306 186 156 134
3.2410351851473305 2.4190474537295916 -15.608948680310856 187 154 129
8.938785109006231 4.66030166810092 -9.264011548280001 180 146 118
9.20133215013949 5.68006384444038 -7.000425406122686 185 160 137
7.651861648691203 9.896386388867262 1.503628289231023 200 173 161
9.047876381569479 5.2165643372683865 -8.085560256890039 126 96 64
4.264252902641896 2.6240770736223036 -15.035734683343218 185 138 102
9.114020183995603 5.393774902908686 -7.735087798303596 184 151 127
1.7998038755893493 2.384550568930712 -16.3657954026434 207 171 143
6.332379576947185 3.00293394255683 -13.709574699735054 220 189 164
7.926162260968172 3.8358048027066016 -11.496380726117026 193 159 129
6.740035328069292 3.236544833384376 -13.230038240166326 205 162 127
8.79212791444739 4.634238213664308 -9.677282592513532 133 103 74
8.79212791444739 4.634238213664308 -9.677282592513532 133 103 74
7.42473446623338 3.6393166957991574 -12.249526691264046 133 101 75
7.505185974189732 3.642268206535073 -12.226755470758931 137 102 71
8.122512772265278 8.402619651434316 -2.2259310806063404 147 121 108
6.396247582503082 3.3082037866727827 -13.411291055677829 168 137 114
6.762511460441663 3.4903050538377167 -12.957056087017163 215 178 148
9.283981267300373 8.74025559448608 -1.4787765880731578 203 189 178
8.605643780096456 7.834516730267596 -3.5893647480332285 148 119 100
7.085413213471232 3.6858476295771005 -12.658364334102268 174 141 121
9.47866623581262 8.050471008809273 -2.9518351733229924 188 175 162
8.801072931294177 7.559349802843413 -4.24309054029754 135 109 91
8.856921980191805 7.613828535464069 -4.160834407388748 150 124 107
-3.7173714612919646 2.785744306592273 -18.276498195038613 216 191 176
6.9295748236908095 3.707257252823848 -12.902806573650242 174 142 122
-1.2186938984042774 2.8964596972373857 -17.310995626252183 217 186 166
-0.12086874237446088 2.8678998361496433 -17.078914816631666 210 179 161
-1.241893307177485 2.847080983579278 -17.515736674621543 180 148 127
-3.013209175244093 2.942500061441358 -17.923200485824545 179 154 138
-1.3244293354387748 2.9238292065180542 -17.41891923647949 178 147 128
5.269250926439513 3.0797914689466914 -14.899460357225697 188 160 137
9.749808917990553 7.578930219877482 -4.335995516341107 82 65 54
-0.8344237254465257 2.902674924080729 -17.32966210177944 182 148 127
10.20621535340859 7.625526707189846 -4.114706645728708 121 105 90
10.353451081688108 7.581934793572606 -4.22707015459392 190 166 147
9.174809824230353 6.600693162067586 -6.646178010846826 157 125 103
-1.1231675310848068 2.7703232403047457 -17.863650938940808 162 139 125
6.078362706973797 3.3619063901990125 -14.208021049061054 199 166 141
6.0427755901912885 3.4117471743528416 -14.147578243410363 158 126 104
9.212664595094088 6.320511535992813 -7.263280163764679 182 150 130
-0.18899836159592404 2.938886718272832 -17.248572729592194 182 164 146
1.9208753962103793 3.011624426689866 -16.449113481165945 175 143 119
5.824381706469304 3.60369328440495 -13.926707360350038 160 125 100
1.708439371948826 2.891268182821132 -16.795595270323208 172 142 121
9.82283074010232 6.873965629458956 -6.051598982227708 190 171 158
0.7940982219209148 2.817266047164934 -17.263903696252793 149 121 105
1.288677970992633 2.9067276856890607 -16.919489212228186 174 158 144
8.741900911759778 5.2090635638795355 -9.927902478125787 55 42 20
9.356636102735362 5.743056021504812 -8.6962884503257 190 181 172
6.040805060067038 3.7103089708972936 -13.902335967039255 196 157 128
0.6100605446495586 2.7679698849188754 -17.704904703557965 149 133 121
0.9422065706594803 2.8437337774600975 -17.521817163486823 199 172 160
9.497510060102979 5.504370098547447 -9.24780243826911 138 131 123
0.19709035940609415 2.721528343606829 -18.05392662096208 195 177 164
10.537464201483653 6.690503602711555 -6.577433769994875 185 169 156
7.25724782290998 4.219434775269285 -12.628747821901221 148 122 103
9.328459374103526 5.4507940361794605 -9.484468441128364 114 104 91
5.740301521212555 2.6115072557914023 -16.31902992605697 177 139 109
9.502838876264079 5.51095873803188 -9.320022687253816 176 167 157
8.15134675498271 4.689770906740547 -11.426319940207147 143 133 122
9.38380595946477 5.2862578020659505 -9.89855694513055 199 183 171
6.398549064619814 3.704495457326431 -14.077079531199544 162 138 119
9.33972149332305 5.120902679542345 -10.34825198453517 126 114 102
9.33972149332305 5.120902679542345 -10.34825198453517 126 114 102
10.026121801457302 5.408647764932541 -9.533345179779062 182 172 164
7.106516308022762 4.197347406474531 -12.97013799304276 191 175 163
7.106516308022762 4.197347406474531 -12.97013799304276 191 175 163
10.269552552956783 5.476180451043684 -9.454936701676873 194 185 176
9.51209969844645 4.844905587936481 -10.968948865684645 183 177 165
7.913006128761873 4.375302160973497 -12.472114641861754 157 140 127
6.3010661306223295 3.5764272852537644 -14.635093432653884 207 176 156
7.561465157817902 4.16456527742966 -13.063156540029887 212 193 179
2.454093318853848 2.4983679055132386 -18.16958984187572 202 179 165
0.2605763990693851 2.3366971180074807 -19.310200864729037 154 140 129
2.747300861513457 2.578583137531989 -17.931397826961728 205 181 166
7.507150011101824 4.047134350689796 -13.371299217025529 171 156 143
2.3275438078504775 2.573234345283443 -18.148415620853164 139 120 105
3.1215824092995974 2.70307138138915 -17.60558978377927 200 178 164
6.9075041722428905 3.7766744242588373 -14.146519447837498 177 153 138
3.132975164358417 2.6523389632648695 -17.73897436931213 146 124 108
7.123654577359222 3.787022924197954 -14.1257079958242 153 132 117
7.073529439153056 3.814459185150831 -14.089938458916091 153 132 116
10.8748695791964 5.473733183837973 -9.512787267140903 145 132 125
6.295361988404491 3.547238013169595 -14.909017853450658 214 186 162
7.246618837050071 4.120170582884714 -13.46292910378125 206 190 180
1.469081758498195 2.3418842430071423 -19.120502407379036 100 88 77
3.340137187552222 2.922947039703192 -17.32618488426335 201 179 165
7.069725600997194 3.704609250677661 -14.411831333696028 138 118 104
7.763197652989133 4.005273074941461 -13.573625953480828 207 191 179
10.810812313542861 5.259156970898963 -10.098488032625779 194 187 176
10.810812313542861 5.259156970898963 -10.098488032625779 194 187 176
10.960215073640311 5.322962197584745 -9.91737579168109 206 192 182
6.9924588404958525 3.7833399243670147 -14.362548294063863 200 182 168
5.040361257301724 2.818985439145261 -16.949742151111135 91 68 46
11.310318534100622 5.581446591047761 -9.356123617864426 121 109 98
8.49285775587913 4.04519602373077 -13.371664073859495 188 175 163
6.3036792773409855 3.3147153215577787 -15.62133197054285 156 126 105
7.136672108850257 3.4852282608034364 -14.966789909255581 214 188 172
11.934599428020109 5.832604716166968 -8.72043829069412 163 146 135
4.5421086008399 2.825048593500181 -17.2683601428651 115 104 91
7.054239065967396 3.5179704260245694 -15.00427264245586 131 110 92
7.5597559212424 3.6580742976160368 -14.592071374832159 204 191 179
5.920147337886821 3.1213966570693907 -16.251455087930076 184 168 155
9.351479569097714 4.152208144737353 -12.986291268449245 108 103 91
5.852604988205461 2.981525518257674 -16.541013358956672 182 161 143
7.145881729809809 3.3970020874789237 -15.264447177767744 148 136 123
3.6590760634007173 2.5132728381798173 -18.32392127014405 210 192 181
9.167302661704712 4.102387059208385 -13.200173861666569 202 189 177
3.228049459483783 2.3554267862717104 -18.900025519793672 207 195 184
3.228049459483783 2.3554267862717104 -18.900025519793672 207 195 184
5.455877163298304 2.8314789630329247 -17.12576578700404 212 192 174
12.049004408327383 5.430026072725258 -9.720886687031502 135 121 109
2.9305664398408133 2.2261552361018513 -19.27327871531973 185 177 166
10.393024726296966 4.272027604801752 -12.558133425141548 203 190 177
10.369988237834178 4.338611336486703 -12.439013759514175 193 182 171
3.9650871787939748 2.41337397234636 -18.568105722206127 200 182 172
4.127351580864771 2.520543498311512 -18.309892933564807 155 140 128
10.145326096351205 4.1466485854425965 -12.887260938171588 178 178 167
10.318678521524117 4.422141519499381 -12.31871626094711 184 176 165
9.473573463491103 3.8234243751572787 -13.77470422068996 132 118 107
7.948296491253993 3.5793320282982513 -14.854278800021183 198 183 170
12.39463832778065 5.4727924285779315 -9.583245514182346 77 80 71
12.394638327780642 5.472792428577941 -9.583245514182332 77 80 71
5.648248934364629 2.8315862184445795 -17.173915465437105 197 173 158
8.202679361514033 3.6367462511592494 -14.65028511513194 213 192 178
11.071491952844738 4.622116245654657 -11.702378606490829 195 181 168
10.464708681313803 4.034013306080546 -13.049338021889954 164 147 132
10.528064473025982 4.038303303194804 -13.024784431810263 153 137 124
7.46610656762435 3.0954439454999236 -16.00851422775073 194 184 174
5.400135605332497 2.6570601681858075 -17.668134205864316 138 118 107
8.058326995300437 3.420597312949446 -15.194240794917777 195 182 171
9.551819426795014 3.8265850969958968 -13.839155829429941 202 185 170
9.906485053697681 4.000819101065619 -13.386681337997743 184 165 151
9.070510943611481 3.6787629913100535 -14.322241377242786 163 140 120
5.841433066989099 2.7394279683673686 -17.374402424920152 209 192 185
10.576445292789053 4.246835849368491 -12.69575184565576 151 139 130
12.10701186519906 5.229306712353231 -10.278470061415243 125 112 98
9.334751393527508 3.5774155248758306 -14.44475163562206 170 147 134
11.871525581479702 5.0177053979289195 -10.772901261790226 195 181 169
12.479814513518752 5.365319337099656 -9.929010460997267 113 96 85
9.680324508261094 3.750763279152126 -14.013389131322835 214 194 182
5.410930668315717 2.6002284822835477 -17.87985422908391 102 90 77
8.792585310609399 3.5500773972724096 -14.795278863038853 146 136 125
11.630771282599706 4.6378837795716175 -11.67024247411033 178 168 158
4.089747853967003 2.252891417424691 -19.13766068734388 194 176 165
9.137070998628083 3.51349352398572 -14.764894265627706 148 131 117
10.204050922537947 3.9220378932088273 -13.586872005689191 124 111 96
10.091186854499849 3.7754304701409507 -13.944264528254829 212 193 178
10.091186854499849 3.7754304701409507 -13.944264528254829 212 193 178
4.788858000072608 2.458008978848213 -18.54834446355254 183 177 168
8.735061654046145 3.352143807517411 -15.313566606364798 115 104 92
8.735061654046183 3.3521438075173875 -15.313566606364825 115 104 92
3.516483610352483 2.060272346254106 -19.82961299002458 135 123 114
3.5300519736691323 2.0545488650232366 -19.834002328471804 135 123 114
11.524648623614915 4.39684414334235 -12.297876309604092 168 163 151
7.079864936184214 2.9022274294699923 -16.880885853223326 106 90 74
7.079864936184214 2.9022274294699923 -16.880885853223326 106 90 74
7.081864986978237 2.924070582152057 -16.845632508396914 112 93 78
11.470933916260197 4.350716092811301 -12.451504559159513 108 99 88
12.590500554592392 4.861728306339717 -11.0881124176944 185 180 169
8.65647336026685 3.4250534992146653 -15.315068831660227 187 176 162
11.292360218911112 4.1587030882244616 -12.913155871861887 190 180 171
11.314947634132995 4.136754463437876 -12.944179217776275 189 180 171
7.007042916066209 2.8227793774953756 -17.14412453640113 99 82 68
5.311478385019304 2.2848000957196284 -18.831168440835043 193 183 173
7.824740273850434 3.1174024209855995 -16.29205583445103 211 197 187
6.7757922796006085 2.707763882656121 -17.47100002079415 221 203 193
6.85787143056193 2.67130186471561 -17.503455034701595 222 204 193
4.319207400944393 -1.1697787455655138 -11.428978622716919 52 34 14
1.5823671915756485 -1.118724210641905 -11.16698218575399 41 40 33
1.6119478658056448 -1.1169113694961645 -11.174973482890666 40 38 31
1.4954270759761457 -1.2563760422842993 -11.730490409867874 74 63 41
-2.234091764754702 -1.4769489362647577 -14.252698089627692 158 129 113
1.3077799123188623 0.7448151745820661 -11.38712770549108 62 61 46
1.342691109214814 1.3966563100700198 -11.812243595394365 21 23 15
1.4024411290419594 1.4510505520828711 -12.095747877768012 72 71 59
2.120493302163965 2.6885838789387266 -11.687521515896805 59 57 45
3.6562158277914194 2.528306894475142 -13.56368246127718 118 93 72
6.56468573289885 7.1475565409082 -2.4560044541527266 197 161 139
8.35821320162093 6.7554947940569905 -3.617460269845785 223 193 174
4.655656140789556 11.874279212848222 6.693042340777244 198 177 165
4.6109900358220255 12.04864536330603 7.0605478217261615 192 171 160
4.381544666089029 11.739300530275862 6.285563787267404 194 172 158
5.977632920635386 11.027021060906842 4.6152253715159945 190 167 154
5.4855476187553505 11.023368543308445 4.450405029335907 196 170 154
5.477931956269507 11.032975388677906 4.462119503998499 197 171 156
5.864933819994286 11.529815882247666 5.654299313409199 201 178 165
-7.846987434423441 2.8665613367543457 -17.61553122514108 210 175 152
1.2465265412261373 2.183628278999265 -16.705731801947987 189 151 126
8.397681159592679 4.165301473530548 -10.632166546721985 221 190 164
7.474812274158358 3.5917004935431343 -12.163228235670655 189 155 129
8.201701270724627 9.78392139785306 1.1506529743256075 149 129 115
5.189403546800747 2.975111797386038 -14.176747793532295 224 174 129
7.742847644941479 8.806132808787918 -1.359074652851604 187 165 151
3.698528632648919 2.696529457726767 -15.40530904849562 171 131 102
6.570614431660926 3.3805224094466735 -13.239783784526413 173 137 113
9.190681621943195 8.68229032424552 -1.5566146515610169 134 120 109
9.195446589173747 8.66958771619336 -1.572339728209178 134 120 109
9.438713406900753 8.234101967249654 -2.67344205352491 176 161 150
9.377012987567026 7.2952131254427135 -4.968349367631741 181 154 139
6.992949799825495 3.957266618297886 -12.541056477929128 205 172 150
10.149280316962129 7.87965194496931 -3.6146523105596766 145 123 105
9.363482513953475 7.023533524045353 -5.687164007498203 156 135 118
9.634438711792983 7.1751274053140595 -5.363998200806314 189 171 155
9.11542439298621 5.783837147646572 -8.351907353060627 211 176 151
9.310208167914574 6.8514949124615985 -6.170750033732851 162 136 120
10.459772333553056 7.4518203322218435 -4.63601701767489 205 168 148
9.219618613274124 6.369549515119179 -7.250298322636274 161 134 117
10.611050873216445 7.337055476798547 -4.908822845009649 151 126 107
4.893645067333095 2.3891402962396437 -16.814723281878656 223 190 165
10.791899353242954 7.127362797104874 -5.402999375164176 178 164 152
1.4122458979862962 2.8663813851234554 -17.17160177588377 200 179 163
4.179430574833025 2.50037504021075 -16.893114286148855 169 136 111
4.224239459519482 2.485124827884596 -16.90954468910661 172 140 114
10.058288214318164 6.798865660470891 -6.349245974063403 201 180 169
9.44800245564996 5.95191980071597 -8.268473014016873 145 130 121
6.67491127611641 3.971104299837456 -13.180510764272912 180 153 134
5.505240267106979 2.854177203628892 -15.813839533495564 199 165 142
9.24919358316289 5.515764299863188 -9.268882982981399 185 176 166
8.487029615327728 4.9003336947752025 -10.764470049091528 164 157 138
2.331347868646128 2.956310057026738 -16.78776004186014 169 143 127
6.210246133261912 3.7011479105958025 -13.981639248127175 162 130 106
6.072192102702301 3.841237567346693 -13.765540447120873 163 135 113
9.106062453024073 5.422822864748465 -9.598930097533913 150 135 124
2.73191886244645 2.857095496456571 -16.95180403258275 209 187 172
6.596711651746279 3.7741694510259394 -13.77891011450301 197 173 156
8.31344225355595 4.739975652700859 -11.27839080082144 201 188 175
8.290896226575745 4.7559426038308965 -11.252663476569193 201 189 174
9.295468287830472 5.36306054113868 -9.707964654141794 115 99 85
6.16661895023396 2.8118810893156554 -15.823544202070448 177 140 109
3.078929624268564 2.8731321616596457 -16.83346571938278 168 141 124
6.151739863225372 2.79568095438867 -15.89002533384374 181 144 113
9.48045150352313 5.366424241099882 -9.712638028677096 182 173 163
-0.10782442190009986 2.576978596742428 -18.653730316020965 177 164 155
10.357197979760068 6.143749225262256 -7.948295301939269 123 115 105
9.91603085884191 5.600868559402135 -9.198730525876437 145 135 126
9.86670100066256 5.648664754370889 -9.123952141737941 145 135 127
7.7074613258012885 4.459247609294287 -12.225545912909237 164 147 135
9.044714615299688 4.712279929874691 -11.280049703711843 199 180 167
8.412854898762022 4.411726667548161 -12.20041329641967 197 184 172
11.526775099682602 6.401823383011442 -7.290892394296907 156 136 123
11.526775099682602 6.401823383011442 -7.290892394296907 156 136 123
2.745239280107936 2.6197630655870534 -17.853566802159076 202 178 164
10.193133387112189 5.33918029496122 -9.851148632114732 141 132 123
9.275721863198218 4.745966779485052 -11.35676091366444 166 153 142
6.337224275788543 3.43943369077892 -14.977215392338291 200 166 142
7.228522072547659 3.7100146300285237 -14.157792104660349 204 184 168
9.39874391948493 4.721473057423291 -11.435038817119437 150 138 126
1.0881658932215725 2.279145483620803 -19.23702502788659 146 136 128
1.3904836285711768 2.452890490496931 -18.78832769467681 194 176 168
2.922516486958322 2.603056063572518 -17.9259967310861 141 121 107
6.9805941076612905 3.783883180488693 -14.196311792699273 209 187 171
6.9805941076612905 3.783883180488693 -14.196311792699273 209 187 171
7.4739669804293065 4.049051364169685 -13.512222087197852 176 160 149
8.820299581836114 4.35335390195792 -12.470358207082903 208 192 180
10.66323458620096 5.219224852232754 -10.118684189754305 190 178 168
2.8195854401985345 2.723836998629368 -17.847197490052363 124 113 102
11.277630837825487 5.952864132395941 -8.527680665723224 115 106 96
10.74125750968718 5.231781053746052 -10.098833254122027 181 172 162
7.507353726964762 3.806579352566413 -14.075766124431503 205 188 174
6.642922671458088 3.453676319978003 -15.096748180569262 208 182 162
7.0364570140121545 3.687142029675977 -14.532043386465572 183 158 143
8.923356369014758 4.328131755825894 -12.5951446822556 157 145 132
9.815284639016763 4.88865064804032 -11.193412272204142 188 176 165
9.840131434538316 4.870541732396602 -11.222306014431235 188 177 166
10.98461695848372 5.399662337268735 -9.782713033602212 206 195 181
2.5244880463426815 2.415930473716935 -18.67846329474495 197 185 177
8.121048265959475 3.982105919155555 -13.580861005671018 189 176 165
9.925317718048348 4.683264238762182 -11.576652590752731 178 169 156
4.653821444498333 2.8470195801043614 -17.06892101370012 184 168 154
9.818530121302858 4.598842299588061 -11.821324894694442 188 180 166
2.7714565873336596 2.5030263534937536 -18.497756729560724 184 171 162
7.238208747701062 3.4682784312963864 -14.983433618863783 218 194 176
6.756844538594798 3.5551135167929626 -15.01961211585685 196 181 167
11.19365388963215 5.331746417833796 -9.985372781236478 200 180 166
11.961404007915137 5.867173439988093 -8.690122445939592 204 182 171
7.4609996929976825 3.635789279807776 -14.62026313094385 153 138 125
7.852059581335862 3.8363999654466263 -14.092158484118341 182 166 151
5.552443660954287 2.9817670693529217 -16.605117665298057 162 129 106
7.281704623206619 3.4483187200292225 -15.06387451132959 145 120 102
6.34069774491318 3.3269244844119474 -15.677328961428799 194 177 160
4.609179896496106 2.7475104926352345 -17.46050621395051 116 112 101
10.111999804740387 4.221146501146098 -12.558671281334904 192 183 173
5.598489123736707 2.9772832553975697 -16.664401733891157 194 171 155
5.541025385467488 3.0010584517942713 -16.63935418024944 196 173 157
3.9412364375571465 2.70860207943601 -17.82319968313607 206 188 175
10.868422239853063 4.882906144178572 -11.051742936240547 200 187 175
11.700928676412676 5.323250452810858 -9.912087751922348 199 183 171
11.62034613767961 5.389818855355749 -9.837751098908127 188 172 160
5.47502532667329 2.909587683693989 -16.883944828531714 201 173 151
5.47502532667329 2.909587683693989 -16.883944828531714 201 173 151
10.182859337320647 4.511843130665545 -12.040259863264323 205 188 177
5.890027893810422 3.009524765278435 -16.54073357629404 120 104 88
9.530970565304097 4.078217804738978 -13.122158177829728 202 196 186
7.8580620471795175 3.6101458789687397 -14.67858000930094 216 197 184
8.676029994758048 3.7600066518515347 -14.072036196464255 167 141 123
8.516759501306115 3.6625072747622975 -14.330635552089852 185 167 156
3.0580799627493778 2.2233651162971206 -19.16862520364443 173 171 161
3.742257252273435 2.609536268661801 -18.21531395989467 190 179 168
4.099627477268603 2.4833418208375586 -18.309727219604586 189 178 166
7.353419410127626 3.230114629848376 -15.630033030533317 95 96 81
10.078670755484957 4.264364163757181 -12.66000536583721 172 160 143
6.108363659159421 3.0203371367835206 -16.54744140830947 190 172 158
6.105699057850397 3.0217020608607563 -16.54717546954934 189 173 161
7.8536899181716855 3.460080793141272 -15.042373352293177 204 188 174
2.4413101827329045 2.2135904215326985 -19.518861700692995 98 89 80
4.7232836226354085 2.6598506217789453 -17.798495966596903 192 180 168
9.869502006068961 4.057489616383859 -13.180795977356597 207 194 184
12.013221462577347 5.269544403927998 -10.096176556378122 81 80 69
4.556717830994655 2.6123476108612724 -17.992122646897457 190 177 165
5.744293643744832 2.8934077596750254 -16.988636905022652 186 171 157
5.832308865852957 2.9291920219539365 -16.89741599121699 207 186 171
12.07109974797915 5.259420706833876 -10.106987487931153 183 177 168
9.395567987535212 3.7565161718053597 -13.946322408361757 200 180 165
11.571181108114407 4.948466664527331 -10.892374356141366 190 175 167
8.955737286315712 3.7079519258844504 -14.244770930802067 201 178 159
9.0626377605957 3.6795267847952093 -14.265601267629586 203 177 158
9.0626377605957 3.6795267847952093 -14.265601267629586 203 177 158
10.68447409162894 4.435654924321749 -12.224480720218134 180 170 159
3.236006872338614 2.067963964803797 -19.602918911150926 186 170 158
4.679930356107543 2.594580535980344 -18.063202676901643 168 151 140
7.736371050932005 3.392169089622488 -15.359971825979642 148 129 114
7.749868497820222 3.38533563628164 -15.368018579126257 150 130 115
8.03612832652801 3.528990373830696 -14.99314534730868 202 182 166
9.316301262666181 3.7502226043935036 -14.082742785294567 218 193 176
2.8304958614707307 2.0021439984533527 -19.946673008308615 138 131 120
11.587424182098632 4.701586453606189 -11.468380965227775 79 77 65
6.494182720817067 2.822864025536907 -16.975165375249347 192 174 162
5.081836198291037 2.5192905346456764 -18.130620050931476 140 124 112
8.518834914094318 3.503504190054617 -14.93617100538046 152 134 119
10.348143498800855 4.110993336759483 -13.089765906898842 188 170 158
11.717767261809925 4.781444394319871 -11.32495218169758 178 167 158
9.447805888122128 3.515682302696321 -14.578007492600646 199 180 171
7.13148091496263 3.095379653734345 -16.31567553071537 201 188 176
10.173836695239817 3.9058431745169693 -13.58379958448132 195 183 169
9.009351162010022 3.532253181600954 -14.752338057736242 155 140 125
9.25450835112437 3.555414140482568 -14.661560072394611 192 174 159
9.454404274251122 3.5452694891547325 -14.599286091307095 101 90 78
9.910691892924461 3.729440589717462 -14.0794847867381 215 185 169
6.010701575575004 2.7127800938625652 -17.539046148141253 194 181 172
11.77762298425484 4.647853983973505 -11.665101799266195 128 121 111
11.77762298425484 4.647853983973505 -11.665101799266195 128 121 111
10.856565649467369 3.923336869197842 -13.374896838791065 189 177 168
5.797936061665036 2.6170859070796353 -17.85530407628418 155 140 127
9.523162258672375 3.585485312214392 -14.55838925224549 101 85 70
5.54124689890672 2.4411307616986235 -18.351868041735532 146 132 120
5.54124689890672 2.4411307616986235 -18.351868041735532 146 132 120
7.558794986399136 3.041665096229861 -16.423975787407915 187 177 161
4.878305698030392 2.327170327414804 -18.844161590855176 180 173 166
10.316609452252182 3.8321598128863 -13.864325037977059 207 190 176
4.12736075156925 2.0538304183796114 -19.651844375732743 207 195 184
5.996432076797244 2.552022127945247 -17.979204162815005 151 134 122
11.350388980896778 4.343528500186536 -12.512184893569103 127 121 111
12.417916084196408 4.900564264576653 -11.080160426719127 178 169 159
12.417916084196408 4.900564264576653 -11.080160426719127 178 169 159
5.506906151754219 2.524901055358579 -18.245423294160286 191 175 166
8.659239581385668 3.3134007905834975 -15.502872501762658 119 110 99
9.583688609056226 3.5333118046467265 -14.75430749884312 87 79 68
10.423355099189466 3.914359347494403 -13.734240741271778 185 170 158
9.627402021930939 3.512322464007186 -14.822879303923287 194 173 156
10.3211168407974 3.691784959885407 -14.230378289759967 217 199 186
1.3402758298482362 -0.16219645233558735 -11.810679179799122 62 61 49
3.0095085080101285 1.8941001642442792 -11.299654965692781 88 78 61
1.250718591216284 1.5804552615732175 -12.468914729692028 46 43 28
1.665896481739683 2.792865611514285 -12.279712075926188 52 57 52
1.4761802060269738 2.6465952414007594 -12.796055100887422 121 119 108
7.549233800388078 6.3679157725089075 -4.667937170694279 197 165 143
7.549233800388078 6.3679157725089075 -4.667937170694279 197 165 143
8.942890668526973 6.323690088104276 -4.710382943020581 217 184 162
7.711719198826194 4.953946467938573 -8.314589011008374 222 187 160
1.2004761855067387 2.1559071580981897 -16.4839146865402 199 171 150
6.413220059972836 9.921807809258066 1.4735865223350177 149 128 114
9.166802741760925 5.189770515568699 -8.241911800373986 189 158 133
-5.513415881706504 2.935332448802953 -17.811541977898372 196 171 158
-4.623540877132883 3.016900850283624 -17.68359654710884 199 174 159
10.09815007442196 7.66899718613893 -4.02763967534158 123 109 97
0.16326398055548566 2.8115269294945393 -17.477797177318653 170 147 131
6.252927047945289 3.2554979479006145 -14.51108889726058 192 158 128
1.8744788696060855 2.820944648016701 -16.968467792210227 188 170 155
6.255324128396814 2.9065114765664504 -15.33728258367359 223 198 177
6.505475938451968 4.08953431904418 -12.920852216455167 205 175 155
9.484157611413025 6.056043139564583 -8.05347549194174 198 179 166
9.498254768955308 6.040994334534504 -8.07598210512535 202 181 169
9.353250432830889 5.235395518242784 -9.816998543394863 178 160 147
8.947825259107391 5.228339369272553 -10.014357883239047 186 169 154
4.873081388341599 2.5506915536464043 -16.710096467545064 147 109 81
7.156309512026707 4.128180355828395 -12.909188355828707 185 164 150
10.325914018530867 6.659635222854724 -6.857873460961816 188 173 163
6.056046441104763 2.829157968311465 -15.927361661831904 155 118 90
5.695488873569505 2.5687139703223854 -16.648950349328153 200 170 144
8.672137213560552 4.686380124412426 -11.50438823570374 204 189 175
9.701006561780698 5.051031585088342 -10.56233315703942 145 135 122
9.701006561780698 5.051031585088342 -10.56233315703942 145 135 122
1.3144219406736037 2.557689557130779 -18.50813782792114 186 173 162
10.94375760517543 5.91107259656903 -8.515628983753146 179 165 156
3.4481781622229914 2.82873874772203 -17.310836338618117 192 177 161
2.4622051695189744 2.5283472428620044 -18.36019805019088 191 178 167
3.7705556998853598 2.890969910231985 -17.22241958626937 190 170 156
8.690128572420969 4.239394575682174 -12.815623313842579 189 182 171
1.981204281940601 2.231231191132804 -19.270809624123846 183 176 168
2.5597637757704303 2.6450878823438555 -18.29927258526309 193 172 161
10.53200571372889 4.891591733899676 -10.997451296843922 182 171 159
7.454136659209447 3.6573210505834526 -14.538733755401298 144 128 115
7.440731743929923 3.664053227456622 -14.529183734903253 144 128 116
4.659676842633242 2.8880248480640844 -17.08686763522478 158 144 133
9.083608830055738 4.145040312567036 -13.041225541251068 157 146 134
8.933156576531964 3.928804722685639 -13.52864858398512 163 146 131
10.828787377380259 5.046633903540625 -10.736847747324786 187 173 162
10.828787377380259 5.046633903540625 -10.736847747324786 187 173 162
7.246400304569167 3.5273868211041868 -15.02024130644545 215 201 190
7.631682145927333 3.6260305340692662 -14.712938955899721 155 143 131
11.961055598500307 5.521274708068143 -9.492820633414476 200 180 168
3.9968689167914033 2.612538646594267 -18.038964524528406 192 177 164
11.960561758721308 5.756221700770503 -9.06844843297481 180 165 152
4.001171733477763 2.6646542622886003 -17.96120962489361 199 180 169
6.596226872605639 3.339267131409411 -15.704829807489885 185 172 158
12.28049504436385 5.695828796515862 -9.108227150735662 197 182 172
12.188091602938943 5.818744714471613 -8.908942807890947 200 182 173
8.827984954825114 3.711585368653419 -14.156214148533248 209 179 162
10.205757375007334 4.218832081880679 -12.663091374135231 203 191 177
7.342089965229053 3.1729063554334296 -15.777190239337154 119 117 106
9.548200961024863 4.025555204559443 -13.367310030882336 199 180 167
11.145838666574969 4.753261593027051 -11.413576944818214 134 126 115
9.215484954803319 3.8372146721267533 -13.866882132854036 203 185 171
9.244697176555224 3.8159053929904108 -13.893140515640775 205 186 172
4.451232638680366 2.4781650143497798 -18.332411439760417 188 172 159
5.8507343983450015 2.8056149299299333 -17.171009946437326 195 176 162
11.360631420775897 4.723544734739948 -11.436384438105897 186 173 161
12.032648265888664 5.226110422996617 -10.229832219264518 188 169 159
12.33125975684356 5.519295215613303 -9.59225579476937 192 169 159
10.133418802764698 4.02313171736568 -13.267497907947131 203 190 176
9.745805316385118 3.928013640641869 -13.624759228484114 181 167 154
9.745805316385118 3.928013640641869 -13.624759228484114 181 167 154
7.820650581493655 3.188016642455972 -15.772879611634398 167 156 143
9.765774763021353 3.8428841980080297 -13.811674996171599 209 187 174
9.78914767109098 3.825532417415892 -13.832422715023691 210 188 174
9.658686630431687 3.98052125320768 -13.611602883709997 149 134 123
10.017375873258947 3.8058782413513645 -13.785417993480023 180 166 154
9.193833962907155 3.631648577640011 -14.43500032371127 197 178 164
11.454310014550467 4.321173241697379 -12.31429086566911 166 153 142
3.3899890715454974 2.04442273398064 -19.802574517095596 177 167 158
6.3785285552865485 2.7826965222256566 -17.26126097239598 213 197 188
10.885494236430189 4.166692514372562 -12.911919142642708 129 126 116
11.462158097801122 4.316222414062753 -12.43222002978973 189 178 165
11.83509387260766 4.683224535728284 -11.60853172631127 186 176 167
12.773329494973426 5.2562446001185865 -10.186998693201463 173 167 161
9.077105118668909 3.535176896809636 -14.830061274686397 198 181 170
6.610338621942763 2.753004980533391 -17.284013347980437 140 131 120
9.388509605416377 3.552734322976197 -14.704243604619496 202 174 155
9.403506766786851 3.5426265279847997 -14.717964377064165 202 175 156
11.187071554461255 3.999296166475562 -13.160316771980769 203 186 174
9.806398293866247 3.552251930612217 -14.5582871169356 192 171 157
5.76925803079731 2.5977212795170392 -17.95904705849861 207 189 178
9.748927211852946 3.68523464831661 -14.3551552506159 189 175 163
9.748927211852946 3.68523464831661 -14.3551552506159 189 175 163
5.521716905081505 2.5389395341365084 -18.208944622017846 190 173 162
10.728520168157557 3.9428188586162563 -13.504617786459804 202 189 175
10.72352589641964 3.9466927450849374 -13.49812602935775 201 189 175
5.008984511761544 2.4713142990442503 -18.569497643037234 193 174 163
5.6058349595468835 2.430832435058199 -18.478067431319815 189 170 159
2.661947298670502 0.6923805814413956 -13.994812221919041 171 137 113
1.1961854741653775 1.3737112168232641 -12.455531384104022 124 107 90
7.299271764274516 6.390907974198565 -4.503243361747807 194 155 130
3.6483554365392687 12.352455392604908 7.96262220158832 148 132 118
-8.977868641950808 3.090671379061696 -16.90639287963223 197 170 150
2.64121030206635 2.3495521588886685 -15.825271322575627 184 151 127
8.200258881177076 4.189170616994449 -10.36763615098692 220 194 174
7.720145629505199 10.297749449629329 2.5680874350921807 175 153 139
9.25238818964668 6.457278906090259 -6.934427711303613 193 160 140
9.51279018440076 7.15021724746477 -5.488720334067461 179 160 145
6.516055599110649 3.8620107158011034 -13.559570985038286 186 155 137
9.541940244854327 5.60824301691373 -9.047205743441285 147 142 134
-0.78227102586406 2.3948015455807643 -19.048140250042266 175 161 152
6.787996862346675 3.878169344562625 -13.527026940079775 192 167 151
8.056665023264339 4.4704333416032345 -11.928944175417833 176 163 149
7.9405218787797605 4.548986908791402 -11.81236951862046 173 161 148
